-0.595497 -0.385357 -0.346747 0.500000 0.500000 0.000000
0.146611 -0.005702 -0.077668 0.600000 0.300000 0.000000
-0.408398 -0.003569 -0.092259 0.600000 0.300000 0.000000
-0.310281 0.156542 -0.231308 0.300000 0.600000 0.000000
-0.022227 0.130908 -0.366718 0.300000 0.600000 0.000000
0.171186 0.156542 0.106746 0.300000 0.600000 0.000000
0.213666 0.038304 0.374815 0.000000 0.000000 1.000000
-0.246188 0.020643 0.239621 0.600000 0.000000 0.300000
0.146413 0.155894 -0.340833 0.300000 0.600000 0.000000
0.188076 0.132506 0.045333 0.300000 0.600000 0.000000
-0.627913 0.132506 -0.015770 0.300000 0.600000 0.000000
0.428520 0.132506 0.179447 0.300000 0.600000 0.000000
-0.338494 0.037009 0.375581 0.600000 0.000000 0.300000
-0.247471 0.156542 0.113370 0.300000 0.600000 0.000000
0.396033 0.156542 -0.103840 0.300000 0.600000 0.000000
-0.710741 -0.337295 0.344131 0.000000 0.000000 1.000000
-0.272967 0.121802 0.364217 0.300000 0.600000 0.000000
-0.131622 -0.003546 -0.008032 0.600000 0.300000 0.000000
-0.146791 -0.005420 0.183447 0.600000 0.300000 0.000000
-0.567672 -0.002568 0.122642 0.600000 0.300000 0.000000
0.626995 0.028739 0.233182 0.500000 0.000000 0.500000
-0.674755 -0.368665 0.017259 1.000000 0.000000 0.000000
-0.017728 0.156402 -0.315091 0.300000 0.600000 0.000000
0.155125 0.156359 -0.049204 0.300000 0.600000 0.000000
-0.226425 0.132506 0.165259 0.300000 0.600000 0.000000
0.435600 -0.380673 -0.329481 0.500000 0.500000 0.000000
-0.560201 -0.002568 0.057949 0.600000 0.300000 0.000000
0.428912 0.020643 -0.102989 0.500000 0.000000 0.500000
0.460190 0.156542 0.279602 0.300000 0.600000 0.000000
0.000068 -0.003569 -0.196497 0.600000 0.300000 0.000000
-0.320522 0.006386 0.379446 0.600000 0.300000 0.000000
-0.650009 -0.002759 -0.320119 0.300000 0.000000 0.600000
0.300760 0.029738 -0.111296 0.500000 0.000000 0.500000
-0.593317 0.156542 0.012234 0.300000 0.600000 0.000000
-0.663118 -0.580702 -0.312923 0.800000 0.200000 0.500000
-0.247951 0.156542 -0.290355 0.300000 0.600000 0.000000
-0.710712 0.007244 -0.110864 0.300000 0.000000 0.600000
-0.002440 0.095324 0.299867 0.600000 0.300000 0.000000
-0.518730 0.121299 -0.366720 0.300000 0.600000 0.000000
-0.406571 -0.006184 -0.282690 0.600000 0.300000 0.000000
0.446279 0.089672 -0.252795 0.500000 0.500000 0.000000
0.663705 0.078793 -0.167136 1.000000 0.000000 0.000000
-0.656418 -0.481799 0.370988 0.000000 0.000000 1.000000
-0.542458 0.020643 -0.196486 0.600000 0.000000 0.300000
-0.042300 0.028739 -0.069999 0.600000 0.000000 0.300000
-0.644099 0.132506 0.318326 0.300000 0.000000 0.600000
-0.653190 -0.374807 -0.359130 0.800000 0.200000 0.500000
-0.694955 -0.662239 0.365772 0.000000 0.000000 1.000000
0.664464 -0.002596 -0.067340 0.600000 0.300000 0.000000
-0.705168 -0.452997 -0.343433 0.300000 0.000000 0.600000
-0.710735 0.007061 -0.056538 0.300000 0.000000 0.600000
0.243264 0.156542 -0.033372 0.300000 0.600000 0.000000
0.020909 0.155779 -0.022502 0.300000 0.600000 0.000000
0.130999 0.075533 0.372469 0.000000 0.000000 1.000000
-0.673652 -0.381881 -0.241116 1.000000 0.000000 0.000000
0.585630 0.007899 -0.349988 0.600000 0.300000 0.000000
-0.658141 -0.005997 0.196039 0.600000 0.300000 0.000000
-0.616999 -0.006485 -0.265611 0.600000 0.300000 0.000000
-0.357313 0.015776 0.376066 0.600000 0.000000 0.300000
-0.194027 0.156542 -0.015419 0.300000 0.600000 0.000000
-0.544993 0.132506 -0.041911 0.300000 0.600000 0.000000
0.619838 0.156542 0.269118 0.300000 0.600000 0.000000
-0.302496 -0.006716 0.043077 0.600000 0.300000 0.000000
0.711406 -0.483643 0.379809 0.300000 0.000000 0.600000
0.464452 0.130711 0.344136 0.300000 0.600000 0.000000
0.252969 0.156542 0.154264 0.300000 0.600000 0.000000
0.473366 -0.006328 -0.103381 0.600000 0.300000 0.000000
0.591497 0.067899 -0.253175 0.500000 0.500000 0.000000
-0.655134 0.132510 -0.166886 0.300000 0.000000 0.600000
0.584767 0.022781 -0.250755 0.500000 0.000000 0.500000
-0.173548 -0.378609 -0.346418 0.500000 0.500000 0.000000
0.663706 0.052174 0.216649 1.000000 0.000000 0.000000
-0.437722 0.020643 -0.058727 0.600000 0.000000 0.300000
0.415102 0.097779 0.377683 0.000000 0.000000 1.000000
0.072274 0.155828 -0.337471 0.300000 0.600000 0.000000
-0.577211 0.132506 -0.023517 0.300000 0.600000 0.000000
0.323181 0.156542 0.096858 0.300000 0.600000 0.000000
0.223974 0.006181 -0.352773 0.600000 0.300000 0.000000
-0.442791 0.020643 -0.114979 0.600000 0.000000 0.300000
0.406916 0.156358 -0.175213 0.300000 0.600000 0.000000
-0.700150 0.068126 0.212482 0.300000 0.000000 0.600000
0.522221 0.132506 0.049196 0.300000 0.600000 0.000000
-0.255858 0.129596 0.379746 0.300000 0.600000 0.000000
-0.703774 -0.612199 0.349872 0.000000 0.000000 1.000000
-0.321518 0.132506 -0.203055 0.300000 0.600000 0.000000
0.447938 0.020643 -0.172726 0.500000 0.000000 0.500000
0.517988 -0.005714 0.302766 0.600000 0.300000 0.000000
0.012781 0.092523 -0.138759 0.000000 1.000000 0.000000
-0.425498 -0.003453 -0.003644 0.600000 0.300000 0.000000
0.691814 0.009645 0.294653 0.600000 0.000000 0.300000
-0.702509 0.155773 -0.314620 0.300000 0.600000 0.000000
-0.636024 -0.006064 0.189897 0.600000 0.300000 0.000000
0.607539 0.010825 0.367169 0.600000 0.300000 0.000000
0.622565 -0.402272 -0.333303 0.500000 0.500000 0.000000
-0.150153 0.132407 0.337518 0.300000 0.600000 0.000000
-0.412862 -0.006713 0.156563 0.600000 0.300000 0.000000
0.697727 0.121965 -0.126314 0.600000 0.000000 0.300000
0.652554 -0.397492 -0.328488 0.600000 0.000000 0.300000
0.664705 0.046502 0.004332 1.000000 0.000000 0.000000
0.707809 0.049109 -0.043263 0.600000 0.000000 0.300000
-0.463677 -0.002895 -0.308513 0.600000 0.300000 0.000000
0.004549 0.156374 0.034233 0.300000 0.600000 0.000000
0.187350 0.081032 -0.366720 0.300000 0.600000 0.000000
0.386780 0.115500 -0.357188 0.300000 0.600000 0.000000
-0.185878 0.132510 -0.312277 0.300000 0.600000 0.000000
0.194519 0.132506 0.206743 0.300000 0.600000 0.000000
0.137268 0.123386 -0.366720 0.300000 0.600000 0.000000
-0.081261 0.021644 -0.249030 0.600000 0.000000 0.300000
0.592012 0.156542 0.133949 0.300000 0.600000 0.000000
0.460831 0.028739 -0.102402 0.500000 0.000000 0.500000
-0.695725 0.116273 0.073519 0.300000 0.000000 0.600000
0.456123 0.016303 -0.366588 0.600000 0.300000 0.000000
-0.202825 0.100959 -0.362641 0.300000 0.600000 0.000000
-0.346599 0.156542 -0.287619 0.300000 0.600000 0.000000
-0.456433 -0.006660 0.215728 0.600000 0.300000 0.000000
0.695268 0.156541 -0.014237 0.300000 0.600000 0.000000
0.707812 0.088112 -0.268728 0.600000 0.000000 0.300000
-0.686781 -0.599867 0.368755 0.000000 0.000000 1.000000
-0.224565 -0.003569 -0.238090 0.600000 0.300000 0.000000
-0.621800 0.112148 -0.366720 0.300000 0.600000 0.000000
-0.530249 -0.006713 0.239085 0.600000 0.300000 0.000000
0.025942 -0.003569 -0.204860 0.600000 0.300000 0.000000
-0.002442 0.155671 0.223623 0.300000 0.600000 0.000000
-0.710922 -0.137985 0.352990 0.000000 0.000000 1.000000
-0.690475 0.039725 0.366887 0.300000 0.000000 0.600000
-0.689913 -0.450583 -0.318999 0.300000 0.000000 0.600000
0.567313 0.156462 -0.261486 0.300000 0.600000 0.000000
0.655611 0.071775 -0.092843 1.000000 0.000000 0.000000
0.140453 -0.004989 -0.025014 0.600000 0.300000 0.000000
-0.533006 0.020643 0.128246 0.600000 0.000000 0.300000
-0.621824 0.132506 0.048770 0.300000 0.600000 0.000000
-0.683373 -0.556055 0.379924 0.000000 0.000000 1.000000
0.079996 0.028739 -0.043236 0.500000 0.000000 0.500000
0.658521 0.095232 -0.093148 1.000000 0.000000 0.000000
0.017672 0.156097 0.285192 0.300000 0.600000 0.000000
-0.256942 0.155541 0.270496 0.300000 0.600000 0.000000
-0.047700 0.020643 -0.101912 0.600000 0.000000 0.300000
0.252820 0.132506 -0.222826 0.300000 0.600000 0.000000
0.688033 -0.390110 0.184176 0.000000 1.000000 0.000000
0.586442 0.020643 -0.183925 0.500000 0.000000 0.500000
0.712473 -0.172077 -0.366579 0.600000 0.000000 0.300000
0.506820 0.132509 -0.310822 0.300000 0.600000 0.000000
-0.055512 0.029738 0.328947 0.600000 0.000000 0.300000
-0.439329 0.155601 0.291354 0.300000 0.600000 0.000000
0.098950 -0.003569 -0.233822 0.600000 0.300000 0.000000
-0.295912 0.020643 0.127672 0.600000 0.000000 0.300000
0.200517 -0.391665 -0.346577 0.500000 0.500000 0.000000
0.638191 0.152129 -0.364284 0.300000 0.600000 0.000000
0.543665 0.029258 0.242328 0.500000 0.000000 0.500000
0.681620 -0.349090 -0.339961 0.600000 0.000000 0.300000
0.146012 -0.002568 0.110029 0.600000 0.300000 0.000000
0.157553 0.020643 0.226425 0.500000 0.000000 0.500000
0.072885 0.028739 0.269154 0.500000 0.000000 0.500000
0.301170 0.156542 0.342305 0.300000 0.600000 0.000000
0.274326 0.000953 -0.338601 0.600000 0.300000 0.000000
-0.367851 0.132506 0.077334 0.300000 0.600000 0.000000
0.283145 0.104225 -0.363014 0.300000 0.600000 0.000000
-0.338755 0.028739 0.131967 0.600000 0.000000 0.300000
0.600441 -0.005715 0.051632 0.600000 0.300000 0.000000
0.377643 0.044056 0.373049 0.000000 0.000000 1.000000
0.580651 -0.005715 -0.116717 0.600000 0.300000 0.000000
-0.025778 -0.003569 0.158094 0.600000 0.300000 0.000000
-0.691036 -0.070120 -0.319597 0.300000 0.000000 0.600000
-0.017112 0.020643 -0.214669 0.600000 0.000000 0.300000
0.424723 -0.006422 0.025571 0.600000 0.300000 0.000000
0.642501 0.132506 0.118924 0.300000 0.600000 0.000000
0.172111 0.020643 0.126957 0.500000 0.000000 0.500000
0.619681 -0.005714 -0.125451 0.600000 0.300000 0.000000
0.643949 0.030398 0.331148 1.000000 0.000000 0.000000
0.303297 0.156542 -0.054954 0.300000 0.600000 0.000000
0.262862 -0.002568 -0.032021 0.600000 0.300000 0.000000
-0.693633 0.118980 -0.285381 0.300000 0.000000 0.600000
0.317977 0.028739 0.238066 0.500000 0.000000 0.500000
-0.706325 -0.289730 -0.338466 0.300000 0.000000 0.600000
-0.650418 0.053202 0.272536 0.300000 0.000000 0.600000
0.723181 -0.658203 0.333454 0.300000 0.000000 0.600000
-0.321218 0.020643 -0.140051 0.600000 0.000000 0.300000
-0.409098 0.156542 0.210375 0.300000 0.600000 0.000000
0.593464 0.028739 0.007043 0.500000 0.000000 0.500000
-0.233714 0.132506 -0.157378 0.300000 0.600000 0.000000
-0.710641 0.111724 0.335718 0.300000 0.000000 0.600000
0.627410 -0.002568 -0.285913 0.600000 0.300000 0.000000
0.216665 0.020643 0.035340 0.500000 0.000000 0.500000
0.038822 -0.005205 0.001826 0.600000 0.300000 0.000000
-0.259480 0.020643 0.054771 0.600000 0.000000 0.300000
0.209254 0.124512 -0.366719 0.300000 0.600000 0.000000
0.142915 0.080300 -0.244384 0.500000 0.500000 0.000000
-0.654078 -0.140049 0.352799 0.000000 0.000000 1.000000
0.549986 0.156542 0.331570 0.300000 0.600000 0.000000
-0.007349 0.067364 -0.123998 0.600000 0.300000 0.000000
-0.383905 0.156542 -0.183081 0.300000 0.600000 0.000000
0.180653 0.020643 -0.087255 0.500000 0.000000 0.500000
0.328495 0.002735 0.353837 0.600000 0.300000 0.000000
0.135012 -0.003029 -0.324556 0.600000 0.300000 0.000000
0.020832 0.053333 -0.157666 0.000000 1.000000 0.000000
-0.669294 -0.550191 -0.348588 0.300000 0.000000 0.600000
-0.583468 0.105386 -0.362555 0.300000 0.600000 0.000000
-0.281080 -0.006716 0.006108 0.600000 0.300000 0.000000
-0.654392 -0.042210 0.338254 0.000000 0.000000 1.000000
0.268295 0.132521 -0.321572 0.300000 0.600000 0.000000
0.159375 0.132506 -0.079380 0.300000 0.600000 0.000000
0.101799 0.105096 0.378767 0.000000 0.000000 1.000000
-0.314257 0.132506 0.226978 0.300000 0.600000 0.000000
-0.596969 -0.003569 -0.169581 0.600000 0.300000 0.000000
0.458027 0.132506 -0.201348 0.300000 0.600000 0.000000
-0.378113 0.155838 0.237929 0.300000 0.600000 0.000000
0.484801 0.020643 -0.043120 0.500000 0.000000 0.500000
0.152321 0.029738 -0.130920 0.500000 0.000000 0.500000
-0.275318 0.020643 -0.154423 0.600000 0.000000 0.300000
-0.627123 -0.003470 -0.013494 0.600000 0.300000 0.000000
-0.328084 -0.006314 0.293526 0.600000 0.300000 0.000000
0.723390 0.016632 -0.073122 0.600000 0.000000 0.300000
-0.561503 0.156542 0.112061 0.300000 0.600000 0.000000
0.702391 0.020513 0.168775 0.600000 0.000000 0.300000
-0.493682 0.156542 -0.055575 0.300000 0.600000 0.000000
0.198512 0.127589 0.354486 0.300000 0.600000 0.000000
-0.690830 -0.390149 -0.072802 1.000000 0.000000 0.000000
-0.259561 0.155541 0.219599 0.300000 0.600000 0.000000
0.208359 0.029738 -0.118468 0.500000 0.000000 0.500000
0.064329 0.028739 0.050875 0.500000 0.000000 0.500000
0.144520 0.028739 0.073694 0.500000 0.000000 0.500000
-0.470782 -0.005899 0.315225 0.600000 0.300000 0.000000
-0.666926 -0.525169 0.347966 0.000000 0.000000 1.000000
-0.565154 -0.002568 0.272655 0.600000 0.300000 0.000000
-0.079005 0.156542 -0.331218 0.300000 0.600000 0.000000
0.191461 -0.006715 0.211581 0.600000 0.300000 0.000000
0.048280 0.132520 -0.321155 0.300000 0.600000 0.000000
0.705779 0.066990 -0.357551 0.600000 0.000000 0.300000
0.155753 0.132506 -0.139876 0.300000 0.600000 0.000000
-0.689784 -0.602963 -0.318913 0.300000 0.000000 0.600000
0.568449 -0.005977 -0.218025 0.600000 0.300000 0.000000
0.140826 -0.005240 -0.193828 0.600000 0.300000 0.000000
-0.464515 0.002694 0.354807 0.600000 0.300000 0.000000
0.055166 0.124393 0.359961 0.300000 0.600000 0.000000
-0.647591 0.022357 0.242359 0.600000 0.000000 0.300000
-0.650418 0.077850 -0.158533 0.300000 0.000000 0.600000
-0.339411 0.047783 -0.362906 0.300000 0.600000 0.000000
0.271602 0.132506 0.276542 0.300000 0.600000 0.000000
0.247100 0.020643 -0.095071 0.500000 0.000000 0.500000
0.005370 0.132506 0.095702 0.300000 0.600000 0.000000
0.680957 -0.252535 -0.337524 0.600000 0.000000 0.300000
-0.678459 -0.402455 0.138175 1.000000 0.000000 0.000000
0.722663 0.016174 0.302290 0.600000 0.000000 0.300000
-0.670563 -0.339587 -0.309043 0.800000 0.200000 0.500000
0.161251 0.132506 0.285511 0.300000 0.600000 0.000000
0.139773 0.018715 0.378117 0.000000 0.000000 1.000000
0.268936 0.020643 0.281036 0.500000 0.000000 0.500000
0.464011 0.132506 -0.173222 0.300000 0.600000 0.000000
0.469493 -0.003200 -0.324769 0.600000 0.300000 0.000000
0.335622 0.132519 -0.320074 0.300000 0.600000 0.000000
-0.166179 0.156542 -0.235643 0.300000 0.600000 0.000000
-0.210573 -0.365663 -0.332026 0.500000 0.500000 0.000000
0.055916 0.033091 0.377493 0.000000 0.000000 1.000000
-0.170235 0.020643 -0.118103 0.600000 0.000000 0.300000
0.268740 0.028739 0.169786 0.500000 0.000000 0.500000
0.548852 0.088903 0.363461 0.000000 0.000000 1.000000
0.503522 0.020643 -0.052294 0.500000 0.000000 0.500000
0.703237 -0.000535 -0.104808 0.600000 0.300000 0.000000
-0.058175 0.020931 0.357615 0.600000 0.000000 0.300000
-0.695353 -0.596507 0.335836 0.000000 0.000000 1.000000
-0.151558 0.132506 0.062877 0.300000 0.600000 0.000000
0.255893 0.048436 0.372063 0.000000 0.000000 1.000000
0.032713 -0.002568 0.092850 0.600000 0.300000 0.000000
-0.330722 -0.003569 -0.098264 0.600000 0.300000 0.000000
-0.227739 0.132506 0.247828 0.300000 0.600000 0.000000
0.221805 -0.006576 0.127327 0.600000 0.300000 0.000000
-0.212432 0.132515 0.326772 0.300000 0.600000 0.000000
-0.669842 -0.482368 -0.326705 0.300000 0.000000 0.600000
0.618558 0.020643 -0.220757 0.500000 0.000000 0.500000
0.481246 0.156154 -0.236504 0.300000 0.600000 0.000000
0.047786 -0.002568 0.136860 0.600000 0.300000 0.000000
-0.066755 -0.006321 -0.037705 0.600000 0.300000 0.000000
0.223151 0.020643 0.310994 0.500000 0.000000 0.500000
-0.014188 0.132506 -0.133950 0.300000 0.600000 0.000000
0.341031 -0.002305 -0.315412 0.600000 0.300000 0.000000
-0.044437 0.020643 -0.023732 0.600000 0.000000 0.300000
0.656166 0.156542 0.142643 0.300000 0.600000 0.000000
-0.395971 0.020643 -0.067323 0.600000 0.000000 0.300000
-0.512237 0.155600 0.331518 0.300000 0.600000 0.000000
-0.076521 0.020643 0.278314 0.600000 0.000000 0.300000
0.337365 0.024806 0.378803 0.000000 0.000000 1.000000
0.385042 0.132506 -0.020651 0.300000 0.600000 0.000000
0.622859 -0.003720 0.374568 0.600000 0.300000 0.000000
-0.151344 0.095379 -0.249750 0.300000 0.000000 0.600000
0.715167 0.094395 0.292275 0.600000 0.000000 0.300000
0.096208 -0.005367 0.030758 0.600000 0.300000 0.000000
0.341823 0.155902 -0.173095 0.300000 0.600000 0.000000
0.682049 -0.087759 0.356648 0.600000 0.000000 0.300000
0.374114 -0.006298 0.048034 0.600000 0.300000 0.000000
0.687980 -0.378254 -0.182877 0.000000 1.000000 0.000000
0.687953 -0.380249 -0.104181 0.000000 1.000000 0.000000
0.090397 -0.005715 0.299342 0.600000 0.300000 0.000000
-0.103336 -0.371282 -0.330087 0.500000 0.500000 0.000000
-0.525647 -0.003387 -0.000546 0.600000 0.300000 0.000000
-0.279750 0.156542 -0.203790 0.300000 0.600000 0.000000
0.207022 -0.003569 -0.165266 0.600000 0.300000 0.000000
0.292898 0.067732 -0.363108 0.300000 0.600000 0.000000
0.114214 0.132508 -0.309548 0.300000 0.600000 0.000000
-0.703028 0.003278 -0.329386 0.300000 0.000000 0.600000
0.532687 -0.006715 0.027848 0.600000 0.300000 0.000000
0.159044 0.060469 -0.362906 0.300000 0.600000 0.000000
-0.599633 0.132506 -0.090598 0.300000 0.600000 0.000000
0.493943 -0.006541 -0.104563 0.600000 0.300000 0.000000
0.641139 0.156542 0.304991 0.300000 0.600000 0.000000
0.719763 -0.226828 -0.342232 0.600000 0.000000 0.300000
0.724932 -0.356971 -0.351813 0.600000 0.000000 0.300000
0.695591 -0.215937 -0.319183 0.600000 0.000000 0.300000
0.591687 0.020643 -0.104523 0.500000 0.000000 0.500000
0.399249 -0.006609 0.071459 0.600000 0.300000 0.000000
0.703870 0.110947 0.134261 0.600000 0.000000 0.300000
0.044390 0.122732 -0.350208 0.300000 0.600000 0.000000
0.232336 0.155541 -0.243405 0.300000 0.600000 0.000000
0.012543 0.069945 0.348030 0.000000 1.000000 0.000000
0.659588 -0.000173 -0.360475 0.600000 0.000000 0.300000
0.687964 0.006768 -0.272621 0.600000 0.000000 0.300000
0.113495 0.132506 -0.110941 0.300000 0.600000 0.000000
0.646970 0.155228 0.369559 0.300000 0.600000 0.000000
0.490247 -0.006715 0.078022 0.600000 0.300000 0.000000
0.503356 0.050233 -0.253175 0.500000 0.500000 0.000000
-0.101415 -0.006714 0.322116 0.600000 0.300000 0.000000
0.309232 0.156473 -0.122551 0.300000 0.600000 0.000000
0.184906 -0.006715 0.191941 0.600000 0.300000 0.000000
-0.079067 -0.003569 -0.237054 0.600000 0.300000 0.000000
0.064298 -0.006038 0.321339 0.600000 0.300000 0.000000
0.724733 0.144347 0.161791 0.600000 0.000000 0.300000
0.249287 0.000528 -0.324323 0.600000 0.300000 0.000000
0.648030 0.124648 -0.347959 0.300000 0.600000 0.000000
-0.554225 0.020643 -0.131576 0.600000 0.000000 0.300000
0.020595 0.043970 0.247847 0.000000 1.000000 0.000000
0.202245 0.020643 -0.162131 0.500000 0.000000 0.500000
-0.009650 0.041730 -0.238569 0.600000 0.300000 0.000000
-0.354898 0.120025 -0.366720 0.300000 0.600000 0.000000
-0.015212 0.008591 -0.350453 0.600000 0.300000 0.000000
-0.617203 0.053619 -0.363338 0.300000 0.600000 0.000000
-0.157956 0.020643 -0.215530 0.600000 0.000000 0.300000
0.707808 0.076131 -0.197894 0.600000 0.000000 0.300000
-0.395006 -0.386965 -0.346703 0.500000 0.500000 0.000000
-0.605802 -0.002814 0.334746 0.600000 0.300000 0.000000
0.668095 -0.065097 -0.333085 0.600000 0.000000 0.300000
-0.499042 0.132506 0.298274 0.300000 0.600000 0.000000
0.364829 -0.002568 0.090046 0.600000 0.300000 0.000000
-0.708575 0.023902 0.098882 0.300000 0.000000 0.600000
0.000479 0.025529 -0.121867 0.600000 0.300000 0.000000
-0.505426 -0.402432 -0.333735 0.500000 0.500000 0.000000
-0.408918 0.156542 -0.139848 0.300000 0.600000 0.000000
-0.262971 -0.003376 0.194094 0.600000 0.300000 0.000000
-0.303068 0.028739 -0.070439 0.600000 0.000000 0.300000
-0.104618 0.029013 0.248039 0.600000 0.000000 0.300000
-0.628925 -0.403677 -0.344762 0.500000 0.500000 0.000000
-0.464102 0.029738 -0.180450 0.600000 0.000000 0.300000
-0.299547 0.029738 0.098810 0.600000 0.000000 0.300000
0.169035 -0.006333 0.117563 0.600000 0.300000 0.000000
0.273939 0.156542 0.231491 0.300000 0.600000 0.000000
0.630724 0.132506 0.163144 0.300000 0.600000 0.000000
0.671405 -0.262731 0.331959 0.300000 0.000000 0.600000
-0.165284 0.101891 0.378856 0.600000 0.000000 0.300000
0.576343 -0.006379 0.352197 0.600000 0.300000 0.000000
-0.273083 0.020722 -0.246999 0.600000 0.000000 0.300000
0.688030 -0.389885 -0.151353 0.000000 1.000000 0.000000
0.250454 0.122001 -0.366720 0.300000 0.600000 0.000000
0.229906 0.091628 0.364289 0.000000 0.000000 1.000000
-0.548885 0.156542 -0.042550 0.300000 0.600000 0.000000
0.242538 0.132506 0.124186 0.300000 0.600000 0.000000
0.725097 -0.063845 0.357947 0.300000 0.000000 0.600000
0.697777 -0.589784 -0.309577 0.600000 0.000000 0.300000
0.326289 0.030433 0.350610 0.000000 0.000000 1.000000
0.602916 0.156542 0.294192 0.300000 0.600000 0.000000
0.299825 0.029738 -0.035192 0.500000 0.000000 0.500000
0.598793 0.156542 0.203705 0.300000 0.600000 0.000000
0.305902 -0.005746 0.017170 0.600000 0.300000 0.000000
0.671913 -0.357742 -0.315407 0.600000 0.000000 0.300000
0.053736 0.132506 -0.182826 0.300000 0.600000 0.000000
-0.045283 -0.003446 0.082153 0.600000 0.300000 0.000000
0.723552 -0.203736 0.333619 0.300000 0.000000 0.600000
0.293477 -0.004978 -0.073308 0.600000 0.300000 0.000000
0.275058 0.020643 0.149235 0.500000 0.000000 0.500000
-0.633909 -0.002749 0.318476 0.600000 0.300000 0.000000
-0.400873 0.132506 -0.128789 0.300000 0.600000 0.000000
-0.414530 -0.006716 -0.047260 0.600000 0.300000 0.000000
0.677404 0.132569 -0.164067 0.300000 0.600000 0.000000
-0.213662 0.040288 -0.243000 0.300000 0.000000 0.600000
-0.221542 0.155642 0.174989 0.300000 0.600000 0.000000
0.600258 0.132506 0.085887 0.300000 0.600000 0.000000
-0.013608 0.020660 0.352678 0.600000 0.000000 0.300000
-0.216802 0.156502 -0.345420 0.300000 0.600000 0.000000
0.364518 0.156436 0.354836 0.300000 0.600000 0.000000
-0.706329 -0.158679 -0.313924 0.800000 0.200000 0.500000
-0.219727 -0.003569 -0.159370 0.600000 0.300000 0.000000
0.016873 0.155414 0.367660 0.300000 0.600000 0.000000
0.496505 -0.006695 -0.070853 0.600000 0.300000 0.000000
-0.008022 0.091211 0.353869 0.600000 0.300000 0.000000
0.180903 -0.003398 -0.316733 0.600000 0.300000 0.000000
-0.505029 0.114806 0.373271 0.600000 0.000000 0.300000
-0.008918 0.020688 -0.176213 0.600000 0.300000 0.000000
0.439060 -0.003529 -0.310210 0.600000 0.300000 0.000000
-0.669255 -0.605189 -0.348457 0.300000 0.000000 0.600000
-0.467104 0.156542 0.107711 0.300000 0.600000 0.000000
0.681497 -0.017326 0.354981 0.600000 0.000000 0.300000
-0.024224 0.020643 -0.088128 0.600000 0.000000 0.300000
-0.653998 -0.509359 -0.350181 0.800000 0.200000 0.500000
0.205881 0.156542 -0.028502 0.300000 0.600000 0.000000
-0.408203 0.155678 0.270829 0.300000 0.600000 0.000000
0.384155 -0.379173 -0.346476 0.500000 0.500000 0.000000
-0.647391 0.022216 0.141997 0.600000 0.000000 0.300000
-0.673953 -0.371527 0.207202 1.000000 0.000000 0.000000
0.553229 0.046840 0.372297 0.000000 0.000000 1.000000
-0.331162 0.156304 -0.354507 0.300000 0.600000 0.000000
0.618891 -0.002568 -0.163731 0.600000 0.300000 0.000000
0.563865 0.054897 -0.244873 0.500000 0.500000 0.000000
-0.650347 0.090790 0.074939 0.300000 0.000000 0.600000
-0.589926 0.020643 0.088579 0.600000 0.000000 0.300000
-0.125344 -0.002929 0.081489 0.600000 0.300000 0.000000
-0.707025 0.154969 0.051564 0.300000 0.600000 0.000000
-0.054286 0.135849 0.379910 0.300000 0.600000 0.000000
-0.149042 0.132506 0.246224 0.300000 0.600000 0.000000
0.319891 0.155693 -0.331115 0.300000 0.600000 0.000000
0.555591 0.028739 0.183865 0.500000 0.000000 0.500000
0.607405 -0.006257 0.353464 0.600000 0.300000 0.000000
0.671562 -0.474871 0.331661 0.300000 0.000000 0.600000
0.156273 0.020643 -0.169877 0.500000 0.000000 0.500000
0.337012 0.029006 0.071677 0.500000 0.000000 0.500000
-0.498233 -0.006716 -0.012770 0.600000 0.300000 0.000000
-0.618416 0.156542 -0.310795 0.300000 0.600000 0.000000
-0.239363 0.028739 0.087337 0.600000 0.000000 0.300000
0.639884 0.020643 0.133316 0.500000 0.000000 0.500000
0.098334 -0.002568 0.195947 0.600000 0.300000 0.000000
-0.295629 -0.002667 0.141867 0.600000 0.300000 0.000000
-0.684351 -0.531214 -0.318310 0.300000 0.000000 0.600000
0.030136 0.031251 -0.038006 0.500000 0.000000 0.500000
-0.112381 -0.383578 -0.346794 0.500000 0.500000 0.000000
-0.107903 0.057798 0.371476 0.600000 0.000000 0.300000
-0.527777 0.020643 -0.105536 0.600000 0.000000 0.300000
-0.145046 0.132506 -0.184010 0.300000 0.600000 0.000000
0.517337 0.132506 -0.263167 0.300000 0.600000 0.000000
-0.188313 -0.006716 -0.145328 0.600000 0.300000 0.000000
-0.038698 -0.005486 0.057522 0.600000 0.300000 0.000000
0.700915 0.017345 -0.302824 0.600000 0.000000 0.300000
-0.441450 -0.006715 -0.148064 0.600000 0.300000 0.000000
-0.281240 0.155541 0.225018 0.300000 0.600000 0.000000
0.125365 0.132506 0.074114 0.300000 0.600000 0.000000
-0.674391 0.114875 -0.356672 0.300000 0.600000 0.000000
-0.184001 -0.395242 -0.330260 0.500000 0.500000 0.000000
0.624923 0.156542 -0.201304 0.300000 0.600000 0.000000
0.426334 0.156542 0.166610 0.300000 0.600000 0.000000
0.139689 0.020643 -0.193337 0.500000 0.000000 0.500000
0.139613 -0.005447 0.038448 0.600000 0.300000 0.000000
-0.646192 0.095751 0.345840 0.300000 0.000000 0.600000
0.708082 0.156374 -0.208131 0.300000 0.600000 0.000000
-0.575697 0.020643 0.276821 0.600000 0.000000 0.300000
-0.506281 -0.006715 0.151290 0.600000 0.300000 0.000000
-0.355308 -0.003569 -0.018616 0.600000 0.300000 0.000000
0.013574 0.156010 0.200190 0.300000 0.600000 0.000000
-0.643424 -0.005507 -0.144176 0.600000 0.300000 0.000000
-0.299081 0.132506 0.184564 0.300000 0.600000 0.000000
-0.591717 -0.003569 -0.243005 0.600000 0.300000 0.000000
0.156691 -0.000194 -0.307546 0.600000 0.300000 0.000000
0.702944 -0.570378 -0.318102 0.600000 0.000000 0.300000
0.685223 -0.065385 0.336247 0.600000 0.000000 0.300000
-0.265445 -0.003569 -0.025357 0.600000 0.300000 0.000000
0.707809 0.048885 0.193612 0.600000 0.000000 0.300000
-0.532250 0.156542 -0.020517 0.300000 0.600000 0.000000
-0.279030 0.092217 -0.252399 0.300000 0.000000 0.600000
-0.030176 -0.006714 0.239058 0.600000 0.300000 0.000000
0.056891 0.107690 0.378725 0.000000 0.000000 1.000000
0.712887 -0.027039 -0.352946 0.600000 0.000000 0.300000
-0.696388 -0.403478 -0.366596 0.800000 0.200000 0.500000
-0.106847 0.132506 -0.073700 0.300000 0.600000 0.000000
0.658962 0.132506 -0.230364 0.300000 0.600000 0.000000
0.483616 -0.002568 0.312751 0.600000 0.300000 0.000000
0.716504 -0.477530 0.325468 0.300000 0.000000 0.600000
-0.703447 -0.222075 -0.345759 0.300000 0.000000 0.600000
0.226630 -0.003449 -0.314182 0.600000 0.300000 0.000000
-0.506166 0.156542 -0.265435 0.300000 0.600000 0.000000
-0.517161 0.132506 -0.269695 0.300000 0.600000 0.000000
0.717830 -0.461402 0.346577 0.300000 0.000000 0.600000
-0.573608 0.156082 -0.356002 0.300000 0.600000 0.000000
0.044749 0.034443 -0.366720 0.300000 0.600000 0.000000
0.094164 -0.005020 -0.180515 0.600000 0.300000 0.000000
-0.626859 0.020643 -0.076283 0.600000 0.000000 0.300000
0.718182 0.000625 0.347204 0.600000 0.000000 0.300000
0.117718 0.028739 -0.042089 0.500000 0.000000 0.500000
-0.677992 -0.402286 0.180340 1.000000 0.000000 0.000000
-0.685482 0.126197 0.174526 0.300000 0.000000 0.600000
-0.607144 0.028739 0.021720 0.600000 0.000000 0.300000
-0.346080 0.155541 0.280427 0.300000 0.600000 0.000000
-0.115104 0.156542 -0.170224 0.300000 0.600000 0.000000
0.247217 -0.002568 0.144106 0.600000 0.300000 0.000000
-0.506320 0.029467 -0.117061 0.600000 0.000000 0.300000
0.260854 0.073446 0.372470 0.000000 0.000000 1.000000
-0.173412 -0.006089 0.219042 0.600000 0.300000 0.000000
0.460145 0.156542 0.073282 0.300000 0.600000 0.000000
0.384908 0.013207 -0.366516 0.600000 0.300000 0.000000
0.355681 0.029231 0.063648 0.500000 0.000000 0.500000
-0.240773 -0.003569 0.274057 0.600000 0.300000 0.000000
0.427208 0.124075 0.360505 0.300000 0.600000 0.000000
0.725058 -0.261093 0.359613 0.300000 0.000000 0.600000
-0.101375 0.107977 -0.366720 0.300000 0.600000 0.000000
0.680840 0.003137 -0.186276 0.600000 0.300000 0.000000
-0.010124 0.000754 -0.301297 0.600000 0.300000 0.000000
0.567532 0.028739 0.210065 0.500000 0.000000 0.500000
0.324144 0.096624 0.377433 0.000000 0.000000 1.000000
0.335107 -0.006092 0.043280 0.600000 0.300000 0.000000
0.235218 0.132506 -0.158470 0.300000 0.600000 0.000000
-0.394356 0.050640 -0.253175 0.300000 0.000000 0.600000
0.292883 0.155541 -0.222542 0.300000 0.600000 0.000000
-0.436932 0.156542 -0.318934 0.300000 0.600000 0.000000
0.641588 0.020643 -0.180194 0.500000 0.000000 0.500000
0.180144 0.156349 -0.065390 0.300000 0.600000 0.000000
-0.022312 0.029610 0.333083 0.600000 0.300000 0.000000
0.213292 -0.006715 0.160987 0.600000 0.300000 0.000000
-0.305375 -0.003569 0.282996 0.600000 0.300000 0.000000
0.671059 -0.476610 -0.319239 0.600000 0.000000 0.300000
0.725153 -0.142022 0.355522 0.300000 0.000000 0.600000
0.677946 -0.647487 -0.312631 0.600000 0.000000 0.300000
-0.311297 0.020643 -0.039333 0.600000 0.000000 0.300000
-0.351965 0.132506 -0.252248 0.300000 0.600000 0.000000
0.312479 0.132506 0.052288 0.300000 0.600000 0.000000
0.718209 0.000968 0.117037 0.600000 0.300000 0.000000
-0.553763 -0.006715 -0.164859 0.600000 0.300000 0.000000
0.523031 0.032530 -0.236755 0.500000 0.500000 0.000000
-0.396022 0.156542 0.102730 0.300000 0.600000 0.000000
-0.700957 -0.359207 -0.327625 0.300000 0.000000 0.600000
0.725114 0.138339 -0.002012 0.600000 0.000000 0.300000
-0.696461 -0.635478 0.336627 0.000000 0.000000 1.000000
-0.670751 0.156542 -0.166489 0.300000 0.600000 0.000000
0.107459 0.155541 -0.255987 0.300000 0.600000 0.000000
-0.049258 0.001619 0.353055 0.600000 0.300000 0.000000
-0.628170 0.089190 -0.362579 0.300000 0.600000 0.000000
-0.376495 0.132506 -0.290524 0.300000 0.600000 0.000000
0.069465 0.020643 0.164035 0.500000 0.000000 0.500000
0.481128 -0.006395 -0.288317 0.600000 0.300000 0.000000
0.381013 0.020643 -0.196342 0.500000 0.000000 0.500000
0.021554 -0.005078 -0.145341 0.600000 0.300000 0.000000
0.387830 -0.002794 -0.202226 0.600000 0.300000 0.000000
0.406807 0.076243 -0.253175 0.500000 0.500000 0.000000
-0.384272 0.020643 -0.226390 0.600000 0.000000 0.300000
-0.510175 0.132506 0.058369 0.300000 0.600000 0.000000
0.272217 0.156542 0.160305 0.300000 0.600000 0.000000
0.160536 0.104838 -0.366720 0.300000 0.600000 0.000000
-0.061954 0.156542 -0.270356 0.300000 0.600000 0.000000
0.723057 0.001457 -0.140463 0.600000 0.300000 0.000000
-0.313978 0.096467 0.377382 0.600000 0.000000 0.300000
-0.655136 -0.159634 -0.355589 0.800000 0.200000 0.500000
-0.186331 0.130613 -0.332346 0.300000 0.600000 0.000000
0.188282 -0.006083 0.088571 0.600000 0.300000 0.000000
0.474155 0.156542 -0.004754 0.300000 0.600000 0.000000
-0.039977 0.078103 -0.366720 0.300000 0.600000 0.000000
0.319578 0.132506 0.317941 0.300000 0.600000 0.000000
0.314902 0.020643 -0.165908 0.500000 0.000000 0.500000
-0.694488 0.118220 0.210656 0.300000 0.000000 0.600000
-0.693168 0.119389 -0.128654 0.300000 0.000000 0.600000
-0.629137 0.030072 0.106470 0.300000 0.000000 0.600000
0.107183 0.020643 0.163043 0.500000 0.000000 0.500000
0.719155 -0.008771 -0.304359 0.600000 0.000000 0.300000
-0.312801 0.130077 0.346603 0.300000 0.600000 0.000000
-0.710630 0.025829 -0.320721 0.300000 0.000000 0.600000
0.570121 0.156542 -0.041135 0.300000 0.600000 0.000000
-0.546382 0.020643 -0.236108 0.600000 0.000000 0.300000
0.525576 -0.387724 -0.346683 0.500000 0.500000 0.000000
-0.497738 0.020643 -0.087036 0.600000 0.000000 0.300000
0.686848 -0.540484 -0.321815 0.600000 0.000000 0.300000
0.397527 0.155541 -0.270158 0.300000 0.600000 0.000000
-0.298644 -0.003177 -0.311074 0.600000 0.300000 0.000000
-0.425697 -0.384938 -0.329838 0.500000 0.500000 0.000000
-0.288411 0.156542 -0.161944 0.300000 0.600000 0.000000
0.277555 0.015810 -0.356848 0.300000 0.600000 0.000000
-0.154653 -0.378552 -0.329882 0.500000 0.500000 0.000000
-0.027492 0.132506 0.180781 0.300000 0.600000 0.000000
-0.201225 0.155972 0.142862 0.300000 0.600000 0.000000
0.200391 0.156542 0.306565 0.300000 0.600000 0.000000
-0.700169 0.090921 0.210377 0.300000 0.000000 0.600000
0.703660 0.155779 0.367162 0.300000 0.600000 0.000000
-0.474395 0.028739 0.060395 0.600000 0.000000 0.300000
-0.128020 0.020643 0.060271 0.600000 0.000000 0.300000
-0.467427 0.075529 -0.362873 0.300000 0.600000 0.000000
-0.318819 0.156542 -0.105119 0.300000 0.600000 0.000000
0.018850 0.126174 -0.345281 0.300000 0.600000 0.000000
0.400130 0.132506 0.125539 0.300000 0.600000 0.000000
-0.238823 -0.002568 0.072060 0.600000 0.300000 0.000000
-0.505907 0.155543 -0.359629 0.300000 0.600000 0.000000
-0.165617 0.132506 -0.049063 0.300000 0.600000 0.000000
-0.667821 -0.268348 -0.344064 0.300000 0.000000 0.600000
0.411918 0.029738 0.174856 0.500000 0.000000 0.500000
-0.708268 -0.349672 0.373433 0.000000 0.000000 1.000000
-0.204622 -0.003569 0.212507 0.600000 0.300000 0.000000
0.723702 -0.461100 -0.357023 0.600000 0.000000 0.300000
-0.670803 -0.436884 0.322900 0.000000 0.000000 1.000000
-0.575522 0.028739 -0.041735 0.600000 0.000000 0.300000
-0.709734 -0.191539 -0.321833 0.800000 0.200000 0.500000
-0.690956 -0.375553 -0.258553 1.000000 0.000000 0.000000
-0.584257 0.132506 0.228808 0.300000 0.600000 0.000000
0.289103 0.020643 0.112592 0.500000 0.000000 0.500000
-0.669354 0.156542 0.243927 0.300000 0.600000 0.000000
0.411521 0.132506 0.306338 0.300000 0.600000 0.000000
-0.290465 0.020643 -0.098591 0.600000 0.000000 0.300000
0.579467 0.028739 0.245661 0.500000 0.000000 0.500000
-0.124637 0.128504 -0.341804 0.300000 0.600000 0.000000
0.044785 -0.380971 -0.346663 0.500000 0.500000 0.000000
0.724757 -0.138321 -0.335659 0.600000 0.000000 0.300000
-0.468622 -0.006121 -0.287135 0.600000 0.300000 0.000000
-0.703461 -0.583664 0.348988 0.000000 0.000000 1.000000
-0.252939 0.054158 0.372136 0.600000 0.000000 0.300000
-0.545589 0.032109 0.377812 0.600000 0.000000 0.300000
-0.067900 0.020643 -0.172300 0.600000 0.000000 0.300000
0.707750 -0.376726 -0.287588 0.000000 1.000000 0.000000
0.327327 0.132506 -0.165687 0.300000 0.600000 0.000000
-0.643667 0.132506 0.247177 0.300000 0.000000 0.600000
0.047823 -0.002568 0.047389 0.600000 0.300000 0.000000
-0.477775 0.020643 -0.138665 0.600000 0.000000 0.300000
-0.675619 -0.577746 0.365502 0.000000 0.000000 1.000000
-0.612193 0.156542 -0.279321 0.300000 0.600000 0.000000
-0.250706 0.020643 -0.096913 0.600000 0.000000 0.300000
-0.533861 0.020643 0.163326 0.600000 0.000000 0.300000
0.398020 0.016197 0.376572 0.000000 0.000000 1.000000
0.707744 0.092581 -0.366631 0.300000 0.600000 0.000000
0.028835 -0.003569 -0.092528 0.600000 0.300000 0.000000
-0.082094 0.028739 -0.003563 0.600000 0.000000 0.300000
0.302999 -0.002603 -0.142887 0.600000 0.300000 0.000000
-0.558698 0.128365 0.379714 0.300000 0.600000 0.000000
0.720898 0.109095 -0.006559 0.600000 0.000000 0.300000
0.559694 0.132506 -0.030687 0.300000 0.600000 0.000000
0.263413 0.156542 0.006266 0.300000 0.600000 0.000000
0.093721 0.020643 0.274803 0.500000 0.000000 0.500000
0.661234 0.095552 0.059068 1.000000 0.000000 0.000000
0.031920 0.155541 -0.253996 0.300000 0.600000 0.000000
-0.296557 0.057800 0.372460 0.600000 0.000000 0.300000
0.691146 -0.207635 0.379871 0.300000 0.000000 0.600000
0.129755 -0.006507 -0.101546 0.600000 0.300000 0.000000
-0.599531 0.028739 0.127506 0.600000 0.000000 0.300000
-0.337462 -0.377385 -0.329915 0.500000 0.500000 0.000000
-0.293579 -0.003569 -0.032513 0.600000 0.300000 0.000000
-0.007521 0.014746 0.373034 0.600000 0.300000 0.000000
-0.000381 0.155715 0.317496 0.300000 0.600000 0.000000
-0.696583 -0.415312 0.349920 0.000000 0.000000 1.000000
0.127575 -0.002571 0.323034 0.600000 0.300000 0.000000
-0.598047 0.028739 0.335051 0.600000 0.000000 0.300000
0.064838 0.127257 -0.343730 0.300000 0.600000 0.000000
0.655611 0.078054 0.146022 1.000000 0.000000 0.000000
0.244351 0.036616 -0.362610 0.300000 0.600000 0.000000
-0.561660 -0.006715 -0.187731 0.600000 0.300000 0.000000
-0.389260 -0.006716 -0.164732 0.600000 0.300000 0.000000
-0.174079 -0.002649 0.096421 0.600000 0.300000 0.000000
0.709857 -0.000085 -0.198596 0.600000 0.300000 0.000000
-0.516220 0.132506 -0.189601 0.300000 0.600000 0.000000
0.704516 0.109789 -0.104093 0.600000 0.000000 0.300000
0.670406 -0.558477 0.370479 0.300000 0.000000 0.600000
0.222288 -0.003569 -0.292989 0.600000 0.300000 0.000000
-0.490995 0.155536 0.356502 0.300000 0.600000 0.000000
-0.336960 -0.003229 0.216307 0.600000 0.300000 0.000000
0.692257 -0.401952 -0.322988 0.600000 0.000000 0.300000
0.031021 -0.003545 -0.069787 0.600000 0.300000 0.000000
-0.690046 0.156446 -0.067839 0.300000 0.600000 0.000000
0.243741 -0.002568 -0.009183 0.600000 0.300000 0.000000
-0.089251 0.155541 0.280033 0.300000 0.600000 0.000000
0.615790 -0.005715 -0.205138 0.600000 0.300000 0.000000
0.488955 0.020643 -0.158372 0.500000 0.000000 0.500000
-0.650418 0.053461 0.161352 0.300000 0.000000 0.600000
-0.203703 0.132506 0.209249 0.300000 0.600000 0.000000
-0.650852 0.044547 0.354796 0.600000 0.000000 0.300000
0.229516 0.132506 -0.088680 0.300000 0.600000 0.000000
0.394311 0.132506 0.214713 0.300000 0.600000 0.000000
-0.203054 0.132506 0.189189 0.300000 0.600000 0.000000
-0.016161 0.031102 0.115949 0.600000 0.300000 0.000000
0.561862 0.132004 0.339091 0.300000 0.600000 0.000000
0.725136 0.139633 -0.277791 0.600000 0.000000 0.300000
-0.624479 0.020643 0.295049 0.600000 0.000000 0.300000
0.329811 0.009277 -0.360681 0.600000 0.300000 0.000000
0.392801 -0.002568 0.029428 0.600000 0.300000 0.000000
-0.497985 0.156542 0.169080 0.300000 0.600000 0.000000
0.007674 0.132506 0.133354 0.300000 0.600000 0.000000
-0.276730 0.156542 0.118639 0.300000 0.600000 0.000000
-0.669290 -0.467179 0.340965 0.000000 0.000000 1.000000
0.276614 0.028739 0.237798 0.500000 0.000000 0.500000
0.712921 0.047421 -0.164802 0.600000 0.000000 0.300000
0.000792 0.071307 0.006102 0.600000 0.300000 0.000000
-0.650418 0.044677 -0.147949 0.300000 0.000000 0.600000
0.365293 0.084858 -0.244082 0.500000 0.500000 0.000000
0.461807 0.132506 0.054356 0.300000 0.600000 0.000000
-0.342264 0.077472 0.373479 0.600000 0.000000 0.300000
0.480023 -0.002568 -0.203443 0.600000 0.300000 0.000000
0.402886 0.132506 0.243279 0.300000 0.600000 0.000000
-0.034948 0.028739 0.055855 0.600000 0.000000 0.300000
-0.403853 0.020643 0.242993 0.600000 0.000000 0.300000
0.725116 0.140311 0.302497 0.600000 0.000000 0.300000
-0.631683 0.030852 -0.038300 0.300000 0.000000 0.600000
-0.501163 -0.003139 0.300822 0.600000 0.300000 0.000000
0.322201 -0.380110 -0.329497 0.500000 0.500000 0.000000
0.615667 0.105140 0.368973 0.000000 0.000000 1.000000
-0.653889 -0.261631 0.358986 0.000000 0.000000 1.000000
-0.673664 -0.383561 0.069453 1.000000 0.000000 0.000000
0.641359 0.072698 0.372919 0.000000 0.000000 1.000000
0.671493 -0.665300 -0.350280 0.600000 0.000000 0.300000
0.020097 0.094440 0.100294 0.000000 1.000000 0.000000
0.144830 -0.002568 0.175348 0.600000 0.300000 0.000000
0.565482 0.156542 0.097825 0.300000 0.600000 0.000000
-0.384784 0.132506 -0.026345 0.300000 0.600000 0.000000
0.708527 -0.002245 0.276080 0.600000 0.300000 0.000000
0.286437 -0.005474 -0.005006 0.600000 0.300000 0.000000
-0.650418 0.074896 0.231410 0.300000 0.000000 0.600000
-0.093871 0.132506 -0.300084 0.300000 0.600000 0.000000
-0.653877 -0.413301 0.358500 0.000000 0.000000 1.000000
-0.177310 0.029738 0.214704 0.600000 0.000000 0.300000
-0.594556 0.082176 0.363378 0.600000 0.000000 0.300000
-0.384359 0.156542 -0.295712 0.300000 0.600000 0.000000
-0.119910 0.028734 -0.222472 0.600000 0.000000 0.300000
0.221705 -0.006378 0.348048 0.600000 0.300000 0.000000
0.308264 0.092316 0.364503 0.000000 0.000000 1.000000
0.078343 0.132506 -0.068830 0.300000 0.600000 0.000000
-0.383189 -0.003569 -0.251749 0.600000 0.300000 0.000000
-0.647195 -0.005575 -0.100364 0.600000 0.300000 0.000000
0.089299 0.048188 -0.253175 0.500000 0.500000 0.000000
0.338840 0.054109 -0.362818 0.300000 0.600000 0.000000
-0.123512 0.132512 0.325193 0.300000 0.600000 0.000000
-0.549190 0.132506 -0.286290 0.300000 0.600000 0.000000
0.293653 0.136090 0.379914 0.300000 0.600000 0.000000
-0.451262 -0.006716 -0.019215 0.600000 0.300000 0.000000
0.527210 0.020643 0.297202 0.500000 0.000000 0.500000
-0.665500 0.037427 -0.366720 0.300000 0.600000 0.000000
-0.493965 0.064608 0.372470 0.600000 0.000000 0.300000
0.264152 0.156542 0.077452 0.300000 0.600000 0.000000
-0.654871 -0.318841 0.336245 0.000000 0.000000 1.000000
-0.690987 -0.378630 -0.224903 1.000000 0.000000 0.000000
-0.706398 -0.379227 -0.312958 0.800000 0.200000 0.500000
0.554026 -0.396555 -0.330804 0.500000 0.500000 0.000000
0.000775 0.080266 0.027726 0.600000 0.300000 0.000000
-0.496933 0.156542 -0.304250 0.300000 0.600000 0.000000
0.302082 0.132506 -0.060996 0.300000 0.600000 0.000000
0.447733 0.156542 0.132751 0.300000 0.600000 0.000000
-0.150164 -0.006235 0.372326 0.600000 0.300000 0.000000
-0.633416 0.156542 -0.236482 0.300000 0.600000 0.000000
0.710862 0.156316 0.192731 0.300000 0.600000 0.000000
-0.691892 0.120519 -0.222899 0.300000 0.000000 0.600000
0.534433 0.124731 -0.366719 0.300000 0.600000 0.000000
0.000052 0.023709 0.312296 0.600000 0.300000 0.000000
0.056735 0.132506 -0.080379 0.300000 0.600000 0.000000
-0.337026 0.155539 0.354586 0.300000 0.600000 0.000000
0.098057 -0.002568 0.156985 0.600000 0.300000 0.000000
-0.660589 0.121601 0.379929 0.300000 0.000000 0.600000
-0.507668 0.076984 0.363376 0.600000 0.000000 0.300000
-0.052432 0.118603 -0.355365 0.300000 0.600000 0.000000
-0.710924 0.121769 0.352799 0.300000 0.000000 0.600000
-0.581628 0.020643 0.151043 0.600000 0.000000 0.300000
0.039130 0.071627 -0.245055 0.500000 0.500000 0.000000
-0.383344 0.108038 -0.366720 0.300000 0.600000 0.000000
0.600343 0.132506 -0.047323 0.300000 0.600000 0.000000
0.167668 0.155590 -0.358220 0.300000 0.600000 0.000000
0.299519 -0.002568 0.252938 0.600000 0.300000 0.000000
0.587825 0.156542 -0.091151 0.300000 0.600000 0.000000
0.590066 -0.000918 -0.332003 0.600000 0.300000 0.000000
-0.226232 0.020643 0.302809 0.600000 0.000000 0.300000
-0.454586 0.132506 0.085995 0.300000 0.600000 0.000000
-0.117762 0.020643 0.155460 0.600000 0.000000 0.300000
-0.432276 -0.005452 0.235869 0.600000 0.300000 0.000000
-0.357842 0.020643 0.045906 0.600000 0.000000 0.300000
-0.142317 -0.003255 0.121644 0.600000 0.300000 0.000000
0.565642 -0.002568 -0.017023 0.600000 0.300000 0.000000
-0.529537 0.122684 0.362765 0.300000 0.600000 0.000000
-0.641438 0.156542 -0.333789 0.300000 0.600000 0.000000
0.163809 0.156542 0.284458 0.300000 0.600000 0.000000
-0.137422 0.020643 0.268266 0.600000 0.000000 0.300000
0.161358 0.020643 0.039298 0.500000 0.000000 0.500000
-0.386945 0.156542 -0.214019 0.300000 0.600000 0.000000
0.064080 0.020643 -0.171965 0.500000 0.000000 0.500000
-0.655343 -0.455982 -0.322464 0.800000 0.200000 0.500000
0.655611 0.081270 0.109208 1.000000 0.000000 0.000000
0.064293 0.132506 0.276399 0.300000 0.600000 0.000000
0.055521 0.072410 0.363376 0.000000 0.000000 1.000000
0.299834 0.132506 0.319004 0.300000 0.600000 0.000000
0.551753 0.028739 -0.127511 0.500000 0.000000 0.500000
-0.690983 -0.378225 -0.187421 1.000000 0.000000 0.000000
-0.245293 0.156542 -0.212826 0.300000 0.600000 0.000000
0.725214 0.118011 -0.337494 0.600000 0.000000 0.300000
-0.296608 0.132506 0.047397 0.300000 0.600000 0.000000
0.717450 0.056776 0.359463 0.600000 0.000000 0.300000
-0.680109 -0.018756 -0.319515 0.300000 0.000000 0.600000
0.231162 -0.002568 0.109558 0.600000 0.300000 0.000000
0.412897 0.156542 -0.008947 0.300000 0.600000 0.000000
0.579672 0.156542 0.026070 0.300000 0.600000 0.000000
-0.238034 -0.003023 -0.318780 0.600000 0.300000 0.000000
-0.674968 -0.396754 -0.127801 1.000000 0.000000 0.000000
0.313285 -0.004656 -0.260047 0.600000 0.300000 0.000000
0.623311 0.156542 -0.112845 0.300000 0.600000 0.000000
0.476971 0.039744 0.361540 0.000000 0.000000 1.000000
0.473194 0.028739 -0.207051 0.500000 0.000000 0.500000
0.671692 -0.044176 -0.359440 0.600000 0.000000 0.300000
0.651607 0.156542 -0.231191 0.300000 0.600000 0.000000
0.284077 0.020643 0.010214 0.500000 0.000000 0.500000
0.088937 0.070086 -0.244749 0.500000 0.500000 0.000000
0.282883 0.029738 -0.074537 0.500000 0.000000 0.500000
0.709386 -0.139256 -0.322763 0.600000 0.000000 0.300000
0.558623 0.020643 0.042046 0.500000 0.000000 0.500000
-0.622884 -0.005671 -0.343769 0.800000 0.200000 0.500000
-0.546012 -0.002875 0.292546 0.600000 0.300000 0.000000
0.070664 0.156542 0.024277 0.300000 0.600000 0.000000
-0.312408 0.033349 0.377041 0.600000 0.000000 0.300000
0.235346 0.132506 0.033413 0.300000 0.600000 0.000000
0.120032 -0.004513 -0.216902 0.600000 0.300000 0.000000
0.455199 0.020643 0.044731 0.500000 0.000000 0.500000
0.677239 0.132568 -0.193155 0.300000 0.600000 0.000000
-0.280775 -0.006419 0.297099 0.600000 0.300000 0.000000
-0.463911 -0.003569 -0.220146 0.600000 0.300000 0.000000
-0.034184 0.132506 -0.098649 0.300000 0.600000 0.000000
0.372569 0.020643 -0.173843 0.500000 0.000000 0.500000
-0.084027 0.020643 0.141994 0.600000 0.000000 0.300000
-0.394489 -0.002976 0.018866 0.600000 0.300000 0.000000
0.137447 -0.002568 0.275717 0.600000 0.300000 0.000000
0.473575 -0.395554 -0.330094 0.500000 0.500000 0.000000
0.482092 0.020643 -0.010865 0.500000 0.000000 0.500000
0.460613 0.028739 0.141277 0.500000 0.000000 0.500000
0.256969 -0.003469 -0.273414 0.600000 0.300000 0.000000
-0.331730 -0.003569 -0.052190 0.600000 0.300000 0.000000
-0.110221 0.155541 0.169782 0.300000 0.600000 0.000000
0.593016 0.028739 0.107834 0.500000 0.000000 0.500000
0.640990 0.020643 0.153097 0.500000 0.000000 0.500000
-0.393660 -0.006280 0.311020 0.600000 0.300000 0.000000
0.576669 0.132506 0.008020 0.300000 0.600000 0.000000
0.447539 0.132506 0.158087 0.300000 0.600000 0.000000
0.599401 -0.006088 0.173879 0.600000 0.300000 0.000000
-0.384639 0.028739 0.207677 0.600000 0.000000 0.300000
-0.657313 -0.651322 0.331776 0.000000 0.000000 1.000000
0.705038 0.107758 -0.230208 0.600000 0.000000 0.300000
0.041505 0.132506 0.185289 0.300000 0.600000 0.000000
0.061125 0.010016 0.379577 0.600000 0.300000 0.000000
0.588689 0.132506 0.178358 0.300000 0.600000 0.000000
-0.665414 -0.313413 0.378186 0.000000 0.000000 1.000000
0.669823 0.132517 0.285755 0.300000 0.600000 0.000000
0.663928 0.058846 -0.068132 1.000000 0.000000 0.000000
0.218058 0.156542 0.279661 0.300000 0.600000 0.000000
-0.701039 -0.122338 -0.328352 0.300000 0.000000 0.600000
-0.216306 0.028739 -0.189590 0.600000 0.000000 0.300000
-0.445710 0.132506 -0.284514 0.300000 0.600000 0.000000
-0.329769 0.132506 -0.044617 0.300000 0.600000 0.000000
0.620387 0.156542 0.155979 0.300000 0.600000 0.000000
0.311908 0.030207 -0.362651 0.300000 0.600000 0.000000
-0.587981 0.034205 0.376992 0.600000 0.000000 0.300000
0.436229 0.132506 0.256054 0.300000 0.600000 0.000000
0.493168 0.029738 0.312805 0.500000 0.000000 0.500000
0.696094 0.156541 0.345021 0.300000 0.600000 0.000000
0.489217 0.056470 -0.366720 0.300000 0.600000 0.000000
0.123159 0.086727 -0.362907 0.300000 0.600000 0.000000
-0.648801 -0.006393 0.275813 0.600000 0.300000 0.000000
-0.292445 0.029738 0.232243 0.600000 0.000000 0.300000
0.711948 0.069952 0.252873 0.600000 0.000000 0.300000
0.234781 0.029919 0.348966 0.000000 0.000000 1.000000
0.665152 0.050025 0.359332 1.000000 0.000000 0.000000
0.443555 0.040426 0.374034 0.000000 0.000000 1.000000
-0.708325 -0.200469 -0.360071 0.800000 0.200000 0.500000
0.479692 -0.367990 -0.344633 0.500000 0.500000 0.000000
0.707442 0.092091 0.198851 0.600000 0.000000 0.300000
0.496946 -0.006295 -0.144981 0.600000 0.300000 0.000000
0.725042 -0.390027 0.344770 0.300000 0.000000 0.600000
-0.371132 0.155541 0.269274 0.300000 0.600000 0.000000
0.221387 0.029738 -0.160626 0.500000 0.000000 0.500000
-0.482006 0.029738 -0.212182 0.600000 0.000000 0.300000
0.417481 0.156542 0.334855 0.300000 0.600000 0.000000
0.073581 0.028739 -0.107098 0.500000 0.000000 0.500000
-0.653945 -0.244377 -0.347985 0.800000 0.200000 0.500000
-0.569139 0.028739 0.038445 0.600000 0.000000 0.300000
0.111086 0.020643 -0.010890 0.500000 0.000000 0.500000
-0.343478 0.132506 0.000149 0.300000 0.600000 0.000000
0.058197 -0.002568 0.200860 0.600000 0.300000 0.000000
0.537649 0.117446 0.370129 0.300000 0.600000 0.000000
-0.479005 -0.006713 0.206590 0.600000 0.300000 0.000000
-0.602701 0.132506 0.311796 0.300000 0.600000 0.000000
0.021912 0.155562 -0.275391 0.300000 0.600000 0.000000
-0.592109 0.050605 -0.244094 0.300000 0.000000 0.600000
0.567284 -0.006029 0.082758 0.600000 0.300000 0.000000
