ply
format ascii 1.0
element vertex 1281
property float x
property float y
property float z
property uchar red
property uchar green
property uchar blue
end_header
0.671316 -0.293893 0.324831 76 0 153
-0.702223 0.053808 -0.210470 76 0 153
0.510952 0.078533 -0.245314 127 127 0
0.532298 0.154468 0.133942 76 153 0
-0.550028 0.134579 0.236780 76 153 0
0.723140 0.152002 -0.140341 153 0 76
-0.642556 0.073060 0.239248 76 0 153
-0.490438 0.134579 0.359101 76 153 0
-0.006116 0.041348 0.230249 153 76 0
-0.665715 0.134579 -0.161534 76 0 153
0.722723 -0.153084 -0.364646 153 0 76
0.136710 0.154468 0.042074 76 153 0
0.663473 0.092487 0.064017 255 0 0
0.000514 0.057482 0.316428 153 76 0
-0.442912 0.114691 0.376076 76 153 0
-0.224115 -0.004642 -0.307011 153 76 0
-0.505226 0.134579 -0.246107 76 153 0
-0.105215 0.154468 0.058935 76 153 0
0.709880 0.079243 -0.157973 153 0 76
0.558817 -0.402418 -0.332355 127 127 0
0.723140 0.007744 0.008318 153 76 0
0.020403 0.085039 0.298618 0 255 0
-0.708852 0.007467 0.145951 76 0 153
0.232489 -0.004642 0.033326 153 76 0
0.308899 0.094802 -0.248888 127 127 0
0.607146 0.028506 -0.010945 127 0 127
0.491882 0.134579 -0.200235 76 153 0
-0.187069 0.021876 0.206257 153 0 76
-0.004507 0.104722 0.371238 153 0 76
0.096447 0.154468 0.082141 76 153 0
0.630550 -0.004642 -0.216019 153 76 0
0.322160 -0.004642 -0.181435 153 76 0
0.701112 0.154468 -0.088736 76 153 0
-0.642187 0.021876 0.146199 153 0 76
0.399199 0.030431 -0.364646 76 153 0
0.182329 0.134579 0.268504 76 153 0
-0.708852 0.009895 0.070074 76 0 153
0.645522 0.134579 -0.116945 76 153 0
-0.324552 0.021876 -0.193328 153 0 76
0.036626 0.154468 0.110722 76 153 0
0.023891 -0.004642 -0.307710 153 76 0
-0.139251 0.134579 -0.162613 76 153 0
-0.334690 0.134579 0.079021 76 153 0
-0.708852 -0.644306 -0.314045 204 51 127
-0.698022 0.043553 -0.364646 76 153 0
0.586854 0.021876 -0.084025 127 0 127
0.723140 -0.548234 0.366180 76 0 153
0.150353 0.134579 -0.348460 76 153 0
-0.363180 -0.385035 -0.344758 127 127 0
-0.655816 -0.488207 -0.363512 204 51 127
-0.657206 -0.073855 0.324831 0 0 255
0.504908 -0.379469 -0.344758 127 127 0
0.569697 0.154468 0.250482 76 153 0
-0.577868 -0.004642 -0.121021 153 76 0
0.560464 0.134579 -0.175404 76 153 0
0.443663 0.154468 -0.203309 76 153 0
-0.655816 -0.415307 -0.329484 204 51 127
-0.487160 0.154468 -0.168887 76 153 0
0.000851 0.134579 -0.067003 76 153 0
0.262931 0.134579 -0.180740 76 153 0
0.294294 0.154468 0.354285 76 153 0
0.710621 0.108061 -0.074721 153 0 76
0.694800 -0.619395 0.377868 76 0 153
0.500531 -0.004642 -0.202375 153 76 0
0.279847 0.134579 0.047418 76 153 0
-0.155411 0.134579 0.335619 76 153 0
-0.001303 0.134579 0.136295 76 153 0
-0.644519 0.154468 0.058051 76 153 0
0.573615 -0.004642 -0.299161 153 76 0
0.214388 0.134579 0.064194 76 153 0
0.461921 0.154468 -0.273033 76 153 0
0.709880 0.086383 0.152788 153 0 76
0.640651 0.068491 -0.251943 127 127 0
-0.106348 0.154468 -0.122199 76 153 0
-0.415995 0.134579 0.044913 76 153 0
0.067531 0.134579 -0.187954 76 153 0
0.585633 0.154468 0.115836 76 153 0
-0.327354 0.021876 0.141338 153 0 76
0.037977 0.028506 -0.003382 127 0 127
-0.172781 0.134579 0.232236 76 153 0
0.709880 0.074425 -0.086834 153 0 76
0.160778 0.021876 0.192931 127 0 127
0.541176 0.154468 0.374441 76 153 0
-0.467943 0.134579 0.074596 76 153 0
0.382500 -0.004642 -0.326345 153 76 0
0.723140 -0.537011 0.337766 76 0 153
-0.412915 -0.395968 -0.344758 127 127 0
-0.303611 0.134579 -0.149824 76 153 0
-0.536271 0.154468 -0.254784 76 153 0
-0.610630 0.154468 0.217765 76 153 0
-0.618622 0.021876 0.002078 153 0 76
0.685115 -0.237251 -0.364646 153 0 76
-0.487702 0.028506 -0.193905 153 0 76
0.000099 0.021876 -0.237227 0 255 0
-0.036554 0.134579 -0.042506 76 153 0
0.013773 0.080639 0.025590 0 255 0
0.063249 0.021876 -0.147814 127 0 127
-0.309932 0.021876 0.271881 153 0 76
0.083226 0.028506 0.130922 127 0 127
-0.465507 -0.004642 0.087350 153 76 0
-0.343162 0.134579 -0.178465 76 153 0
-0.100774 -0.004642 0.103609 153 76 0
-0.464291 0.134579 0.109305 76 153 0
-0.296341 0.134579 -0.089745 76 153 0
-0.406287 0.134579 0.368484 76 153 0
-0.327107 0.154468 0.056910 76 153 0
0.463050 0.021876 -0.183502 127 0 127
0.539970 -0.004642 0.264611 153 76 0
0.068550 0.021876 -0.219068 127 0 127
-0.641263 0.154468 -0.243487 76 153 0
0.101442 0.028506 0.317421 127 0 127
0.312305 -0.004642 -0.272971 153 76 0
-0.182778 0.154468 0.139209 76 153 0
0.421187 0.021876 0.011839 127 0 127
-0.324194 0.021876 0.336644 153 0 76
-0.301461 0.015247 0.377074 153 0 76
-0.000366 0.094802 0.041746 153 76 0
-0.383486 0.134579 -0.167969 76 153 0
0.289045 0.021876 -0.206422 127 0 127
-0.087844 -0.377332 -0.344758 127 127 0
-0.356838 -0.004642 0.183827 153 76 0
-0.655816 -0.189707 -0.335949 204 51 127
-0.708852 -0.059074 0.331201 0 0 255
-0.201840 0.028506 -0.060724 153 0 76
-0.261844 0.021876 0.116301 153 0 76
-0.367529 0.154468 0.002595 76 153 0
0.554855 0.134579 -0.047624 76 153 0
0.614563 -0.004642 0.077873 153 76 0
0.452504 -0.004642 -0.294329 153 76 0
-0.106605 0.134579 0.102453 76 153 0
-0.196047 0.134579 0.123417 76 153 0
0.031511 0.021876 -0.168330 127 0 127
-0.449365 0.154468 -0.154213 76 153 0
-0.163954 -0.004642 -0.079539 153 76 0
0.670103 -0.264514 0.344294 153 0 76
-0.232316 0.021876 0.152105 153 0 76
0.072384 0.154468 0.205957 76 153 0
-0.675704 -0.370018 -0.070443 255 0 0
-0.323294 0.028506 -0.139713 153 0 76
-0.702341 -0.300514 -0.364646 204 51 127
0.521497 0.154468 -0.289815 76 153 0
-0.308191 0.134579 0.071133 76 153 0
-0.159068 -0.004642 -0.270521 153 76 0
-0.023518 0.134579 -0.172477 76 153 0
0.211345 0.053428 -0.251943 127 127 0
-0.145665 -0.004642 -0.105426 153 76 0
0.473244 0.015247 0.374126 153 76 0
-0.655816 -0.258785 0.342352 0 0 255
0.663473 0.091483 -0.235802 255 0 0
0.084034 0.048170 -0.251943 127 127 0
-0.585468 0.021876 0.232407 153 0 76
-0.445311 0.134579 0.039050 76 153 0
0.703251 -0.401912 0.020240 0 255 0
-0.060977 0.028506 0.125838 153 0 76
0.564893 -0.004642 -0.065963 153 76 0
-0.692587 -0.602988 0.377868 0 0 255
-0.446363 0.134579 -0.321977 76 153 0
0.107507 0.134579 -0.086412 76 153 0
-0.145682 0.154468 0.146654 76 153 0
-0.660039 -0.130997 0.377868 0 0 255
-0.106885 0.154468 -0.285571 76 153 0
-0.104022 0.154468 0.185953 76 153 0
0.020403 0.081143 0.142229 0 255 0
0.723140 0.113212 0.138041 153 0 76
-0.642556 0.091523 0.115691 76 0 153
-0.086798 0.154468 -0.066004 76 153 0
-0.582841 0.028506 -0.070890 153 0 76
-0.409414 0.028506 0.112633 153 0 76
0.455489 0.021876 0.210296 127 0 127
0.684432 -0.667601 -0.345658 153 0 76
0.694059 -0.362640 -0.022441 0 255 0
0.593318 -0.004642 -0.096586 153 76 0
-0.080804 0.028506 -0.099023 153 0 76
0.670103 -0.159259 -0.313030 153 0 76
-0.236628 0.134579 -0.300537 76 153 0
0.656844 0.043462 0.048634 255 0 0
-0.617221 -0.004642 -0.114181 153 76 0
0.497643 0.010220 0.377868 153 76 0
-0.702223 0.085146 0.318642 76 0 153
0.040263 0.021876 0.172186 127 0 127
0.723140 -0.083928 0.340491 76 0 153
0.039918 0.144501 -0.364646 76 153 0
-0.463509 0.021876 0.150431 153 0 76
-0.454727 0.154468 -0.007335 76 153 0
-0.649186 0.084965 0.179841 76 0 153
-0.523753 0.035322 -0.364646 76 153 0
0.184459 -0.004642 -0.167165 153 76 0
-0.139113 0.154468 0.293071 76 153 0
-0.006116 0.037198 0.285941 153 76 0
0.711535 0.134579 -0.016634 153 0 76
0.704584 -0.188191 0.377868 76 0 153
-0.130206 -0.004642 0.359549 153 76 0
-0.675704 -0.388734 -0.146199 255 0 0
-0.257987 0.021876 0.260686 153 0 76
0.638368 -0.004642 -0.271943 153 76 0
0.347997 0.154468 0.039057 76 153 0
0.723140 -0.252046 0.373810 76 0 153
0.274499 0.134579 0.025248 76 153 0
0.525209 0.021876 -0.163429 127 0 127
-0.657140 -0.542475 0.324831 0 0 255
0.636650 0.109433 -0.364646 76 153 0
0.002732 -0.004642 0.216682 153 76 0
0.703631 -0.474594 -0.364646 153 0 76
-0.464340 0.028506 0.102888 153 0 76
-0.604944 0.021876 -0.235615 153 0 76
0.137167 0.154468 -0.170371 76 153 0
0.033481 0.154468 0.047991 76 153 0
0.631341 -0.004642 -0.174740 153 76 0
0.703251 -0.380866 0.033495 0 255 0
-0.297675 0.134579 0.327702 76 153 0
-0.585167 0.134579 -0.351977 76 153 0
-0.480855 0.114691 0.373685 153 0 76
0.193168 0.154468 -0.249166 76 153 0
0.663473 0.078497 0.249374 255 0 0
-0.105412 0.051711 0.371238 153 0 76
0.239829 0.134579 -0.223701 76 153 0
-0.169206 0.021876 0.040411 153 0 76
-0.065216 0.154468 0.350197 76 153 0
-0.003307 0.094802 0.323705 153 76 0
0.432127 0.095962 0.377868 0 0 255
-0.340309 -0.004642 -0.028919 153 76 0
0.549795 0.134579 -0.216361 76 153 0
-0.235620 0.134579 0.343400 76 153 0
0.599699 -0.004642 0.169853 153 76 0
-0.421792 0.154468 0.325640 76 153 0
0.723140 -0.661826 -0.322888 153 0 76
0.147185 -0.004642 0.222571 153 76 0
0.525731 0.120062 -0.364646 76 153 0
-0.649186 0.034974 0.074104 76 0 153
0.003490 0.134579 0.230119 76 153 0
0.624227 0.134579 0.176833 76 153 0
0.656844 0.039546 0.250421 255 0 0
-0.363626 -0.004642 0.313689 153 76 0
-0.563970 0.134579 -0.123296 76 153 0
0.723140 0.000307 0.336495 153 0 76
-0.702223 0.089853 -0.060303 76 0 153
0.349501 -0.004642 -0.213813 153 76 0
0.723140 -0.136553 -0.313017 153 0 76
0.670103 -0.491819 0.346455 76 0 153
-0.265613 0.154468 0.225049 76 153 0
-0.465668 0.134579 -0.257220 76 153 0
0.723140 -0.445483 0.343259 76 0 153
-0.478868 0.134579 0.286688 76 153 0
-0.023569 0.028506 -0.233781 153 0 76
-0.702223 0.076454 -0.167194 76 0 153
0.723140 0.130317 -0.032404 153 0 76
0.149537 -0.004642 -0.044518 153 76 0
0.552677 -0.004642 0.064660 153 76 0
0.278255 0.021876 0.123145 127 0 127
-0.279514 -0.004642 -0.152380 153 76 0
0.663473 0.068659 0.187675 255 0 0
0.219418 0.154468 -0.291770 76 153 0
-0.246652 0.021876 0.193565 153 0 76
-0.649186 0.045093 -0.177746 76 0 153
-0.018956 -0.004642 0.323029 153 76 0
-0.240303 0.040114 -0.364646 76 153 0
-0.304341 0.021876 -0.001575 153 0 76
-0.653968 0.154468 0.358874 76 153 0
0.626732 -0.004642 -0.117296 153 76 0
-0.444806 -0.004642 -0.199603 153 76 0
-0.393349 0.134579 0.055150 76 153 0
0.709880 0.059341 -0.252360 153 0 76
-0.281061 0.134579 0.206344 76 153 0
-0.568438 0.134579 -0.027874 76 153 0
-0.436206 -0.004642 0.209247 153 76 0
0.239097 -0.004642 0.162890 153 76 0
-0.340792 0.154468 0.288422 76 153 0
-0.708852 0.135993 0.377446 76 0 153
-0.404013 0.021876 0.264830 153 0 76
-0.147827 -0.004642 -0.146852 153 76 0
0.289045 0.134579 0.162586 76 153 0
0.222461 0.094802 0.375414 0 0 255
0.000514 0.022635 0.317959 153 76 0
0.098392 0.120807 -0.364646 76 153 0
-0.521467 0.028506 0.298260 153 0 76
-0.442135 0.154468 -0.270408 76 153 0
-0.006116 0.088872 -0.071904 153 76 0
-0.328475 0.021876 0.180171 153 0 76
-0.022056 0.021876 -0.154743 153 0 76
0.466926 0.021876 -0.130247 127 0 127
-0.532602 0.134579 -0.198848 76 153 0
0.670103 -0.434732 0.355556 76 0 153
-0.114298 -0.004642 -0.045082 153 76 0
0.109122 -0.004642 0.245256 153 76 0
0.670103 -0.254386 -0.314396 153 0 76
0.070252 -0.004642 0.162046 153 76 0
-0.376933 0.154468 -0.283268 76 153 0
0.670103 -0.156861 0.371569 76 0 153
-0.547462 0.028506 -0.065608 153 0 76
0.205720 0.028506 0.125286 127 0 127
0.399866 0.051744 0.364609 0 0 255
0.657218 0.021876 -0.077696 255 0 0
0.096678 0.028506 0.003084 127 0 127
-0.062946 0.154468 -0.286968 76 153 0
-0.350755 0.134579 -0.042837 76 153 0
-0.024568 0.134579 -0.079304 76 153 0
-0.702223 0.033691 -0.273760 76 0 153
0.221404 0.021876 0.358149 0 0 255
0.663473 0.041357 0.120013 255 0 0
-0.511995 0.021876 0.324610 153 0 76
-0.185314 0.134579 0.199155 76 153 0
0.715932 0.154468 0.217778 153 0 76
0.402909 0.028506 0.048559 127 0 127
-0.003444 0.134579 0.328638 76 153 0
-0.107486 0.021876 0.308385 153 0 76
-0.687411 -0.030381 0.371238 0 0 255
0.723140 -0.271591 0.340299 76 0 153
0.673489 0.154468 0.025245 76 153 0
0.158049 0.154468 0.355417 76 153 0
-0.632248 0.021876 -0.229923 153 0 76
-0.041883 -0.004642 0.336110 153 76 0
0.209578 0.134579 -0.006516 76 153 0
-0.043043 0.134579 0.139412 76 153 0
-0.094251 0.154468 0.335840 76 153 0
-0.429384 -0.004642 -0.253740 153 76 0
0.348291 0.134579 -0.160960 76 153 0
0.095670 0.134579 0.159726 76 153 0
0.703251 -0.363581 0.181701 0 255 0
-0.656653 -0.045831 0.324831 0 0 255
-0.443305 0.051880 0.364609 153 0 76
0.238401 0.154468 0.175060 76 153 0
-0.356466 0.021876 0.337138 153 0 76
0.175506 0.134579 0.170159 76 153 0
0.425412 0.134579 -0.243446 76 153 0
0.434426 -0.004642 -0.345816 153 76 0
-0.702223 0.105933 -0.114797 76 0 153
0.124643 0.134579 0.061904 76 153 0
0.000514 0.027817 -0.106215 153 76 0
0.164969 0.028506 0.152163 127 0 127
-0.301040 0.134579 0.140789 76 153 0
0.643804 0.154468 -0.333478 76 153 0
-0.153107 -0.004642 0.309923 153 76 0
-0.103549 0.028506 -0.013453 153 0 76
0.193833 0.154468 0.046035 76 153 0
0.618987 0.154468 -0.362250 76 153 0
-0.646895 0.129765 0.371238 76 0 153
-0.311994 0.021876 0.091863 153 0 76
0.662311 0.094802 -0.180927 255 0 0
0.703251 -0.386652 0.229455 0 255 0
0.407706 -0.004642 -0.078354 153 76 0
-0.703221 -0.260596 0.324831 0 0 255
-0.041722 0.028506 -0.117069 153 0 76
0.305866 0.154468 0.271629 76 153 0
-0.530948 0.028506 0.188694 153 0 76
-0.444036 0.028506 0.227516 153 0 76
0.024838 0.021876 -0.092396 0 255 0
0.128509 0.021876 -0.026412 127 0 127
-0.548108 -0.004642 0.348037 153 76 0
-0.692477 0.134579 0.064823 76 0 153
0.718490 -0.004642 -0.177176 153 76 0
-0.447379 0.131682 -0.364646 76 153 0
0.434619 0.028506 0.319773 127 0 127
0.275028 0.154468 0.068454 76 153 0
-0.416092 0.134579 0.234400 76 153 0
-0.068898 0.134579 -0.299718 76 153 0
-0.006116 0.070576 0.286405 153 76 0
0.061826 0.134579 0.184351 76 153 0
-0.708852 -0.625561 0.352929 0 0 255
0.073127 0.134579 0.287444 76 153 0
0.567683 0.154468 0.158237 76 153 0
0.007458 0.134579 0.256514 76 153 0
0.434035 -0.004642 0.008868 153 76 0
-0.085898 0.134579 -0.202743 76 153 0
0.151137 -0.004642 -0.004946 153 76 0
-0.708852 0.012730 -0.100987 76 0 153
0.678019 0.154468 0.182014 76 153 0
-0.646784 -0.004642 0.115260 153 76 0
-0.350094 -0.004642 -0.257195 153 76 0
-0.150577 0.154468 0.063251 76 153 0
0.306247 0.134579 0.237819 76 153 0
0.100597 -0.004642 0.309686 153 76 0
0.633329 -0.004642 0.165733 153 76 0
0.058418 0.154468 -0.335008 76 153 0
0.322148 0.021876 0.146202 127 0 127
-0.675704 -0.373884 -0.095578 255 0 0
0.375761 0.134579 0.322763 76 153 0
0.303811 0.154468 0.141126 76 153 0
0.700287 -0.362640 -0.187416 0 255 0
-0.505347 0.134579 -0.117899 76 153 0
0.412824 0.021876 0.154524 127 0 127
-0.264324 0.021876 0.042866 153 0 76
-0.373590 0.154468 -0.092704 76 153 0
-0.041535 -0.004642 -0.264461 153 76 0
-0.481571 0.092902 0.364609 153 0 76
0.611932 -0.004642 0.355851 153 76 0
-0.672891 -0.534298 0.371238 0 0 255
0.058677 0.154468 -0.000676 76 153 0
-0.232674 -0.004642 -0.235731 153 76 0
-0.230828 0.021876 0.124082 153 0 76
-0.467283 -0.004642 -0.257139 153 76 0
-0.563339 0.134579 -0.292305 76 153 0
-0.439507 0.134579 0.232373 76 153 0
-0.228941 0.021876 0.059515 153 0 76
0.377315 -0.001923 -0.364646 153 76 0
-0.619205 0.134579 0.248245 76 153 0
-0.336689 -0.004642 0.187393 153 76 0
0.365180 0.021876 0.029847 127 0 127
-0.493831 0.154468 -0.008089 76 153 0
0.672414 0.134579 0.036190 76 153 0
0.537190 0.154468 -0.096393 76 153 0
-0.163724 0.042107 0.371238 153 0 76
0.517332 -0.004642 -0.113357 153 76 0
0.355636 0.134579 0.241408 76 153 0
-0.422016 0.028506 -0.178411 153 0 76
-0.131554 0.021876 0.011862 153 0 76
-0.638769 -0.004642 -0.351189 153 76 0
0.723140 -0.515088 0.344401 76 0 153
0.481565 -0.004642 -0.129616 153 76 0
0.723140 0.138458 0.077909 153 0 76
0.001483 0.134579 -0.026573 76 153 0
-0.708852 -0.306486 0.328729 0 0 255
0.723140 0.149988 -0.276929 153 0 76
0.142517 0.134579 0.103223 76 153 0
0.551854 0.134579 0.146083 76 153 0
-0.377128 -0.004642 -0.315183 153 76 0
0.709880 0.082316 0.025427 153 0 76
0.709880 0.083051 -0.046308 153 0 76
0.441412 -0.004642 -0.039342 153 76 0
-0.642556 0.054477 0.047244 76 0 153
0.225308 0.047958 0.364609 0 0 255
-0.659749 -0.667601 -0.317359 204 51 127
-0.668770 -0.517803 -0.364646 204 51 127
0.664258 0.012199 0.371238 153 76 0
0.317472 -0.004642 -0.320573 153 76 0
0.670103 -0.046413 -0.313180 153 0 76
-0.637603 -0.004642 -0.038643 76 0 153
-0.562049 0.021876 0.118264 153 0 76
0.103705 0.083804 -0.364646 76 153 0
0.688612 0.154468 -0.007613 76 153 0
-0.332497 0.154468 0.098303 76 153 0
-0.708852 -0.649950 -0.356312 204 51 127
-0.571571 0.154468 0.225403 76 153 0
0.612337 0.089240 -0.364646 76 153 0
0.022870 -0.375844 -0.344758 127 127 0
-0.408562 0.002218 0.377868 153 76 0
-0.301733 -0.386737 -0.344758 127 127 0
0.521013 0.021876 0.129483 127 0 127
-0.148373 0.021876 -0.211155 153 0 76
-0.045862 -0.004642 0.073381 153 76 0
0.723140 0.014727 0.202808 153 76 0
-0.680467 -0.498583 0.377868 0 0 255
0.348282 0.134579 0.011583 76 153 0
-0.106997 -0.004642 0.246036 153 76 0
0.552678 -0.004642 -0.289055 153 76 0
-0.708852 -0.131088 -0.313767 204 51 127
-0.029824 0.028506 0.266987 153 0 76
-0.083260 0.021876 0.230274 153 0 76
-0.164156 0.028506 0.173209 153 0 76
-0.708852 0.115226 0.344338 76 0 153
-0.215318 -0.402297 -0.331498 127 127 0
0.066090 0.041309 0.364609 0 0 255
-0.068218 0.154468 -0.031144 76 153 0
0.285610 0.154468 0.023388 76 153 0
-0.116116 0.154468 -0.024073 76 153 0
-0.305556 0.021876 0.160278 153 0 76
-0.702223 0.019230 0.120138 76 0 153
-0.436871 0.021876 -0.145781 153 0 76
0.699542 -0.402418 -0.023499 0 255 0
-0.251299 -0.004642 0.025772 153 76 0
-0.020558 0.028506 0.198761 153 0 76
0.482614 0.028506 0.272428 127 0 127
0.502135 0.021876 0.344986 127 0 127
-0.253334 0.154468 -0.231328 76 153 0
-0.218502 -0.362640 -0.342246 127 127 0
-0.708852 -0.280171 0.376298 0 0 255
-0.032526 0.134579 0.122798 76 153 0
0.306751 -0.004642 0.136890 153 76 0
-0.708852 -0.387840 -0.337009 76 0 153
-0.205442 0.021876 0.370249 153 0 76
-0.087874 0.134579 -0.040409 76 153 0
0.527012 -0.371510 -0.344758 127 127 0
0.723140 -0.302582 -0.337622 153 0 76
0.220906 0.035509 -0.364646 76 153 0
0.341253 0.134579 0.083230 76 153 0
-0.485459 0.048873 -0.245314 76 0 153
-0.581226 0.154468 0.041262 76 153 0
-0.396674 0.154468 -0.359917 76 153 0
-0.194072 0.154468 -0.149255 76 153 0
-0.649051 0.021876 0.020768 76 0 153
-0.559660 0.028506 -0.007697 153 0 76
0.061675 -0.004642 -0.037059 153 76 0
-0.702080 -0.279243 -0.311610 204 51 127
-0.566900 0.060940 0.371238 153 0 76
0.401867 -0.004642 -0.050637 153 76 0
0.453977 0.134579 0.007069 76 153 0
0.338788 0.134579 0.202217 76 153 0
-0.676542 -0.362640 0.060668 255 0 0
0.625606 -0.004642 0.268915 153 76 0
0.631431 0.028506 0.239632 127 0 127
-0.667121 -0.630539 -0.311610 204 51 127
-0.131614 0.134579 0.130116 76 153 0
0.668007 0.032857 0.371238 153 0 76
-0.197845 -0.004642 -0.342835 153 76 0
-0.708852 -0.072604 0.372901 0 0 255
-0.181446 -0.004642 0.190702 153 76 0
0.565680 0.154468 -0.017835 76 153 0
-0.581687 0.147554 0.377868 76 153 0
-0.353403 -0.004642 -0.058325 153 76 0
0.518310 -0.004642 0.316743 153 76 0
0.670103 -0.252923 -0.346467 153 0 76
0.013773 0.094337 -0.007953 153 76 0
0.341823 0.134579 0.343981 76 153 0
0.623627 0.134579 0.288367 76 153 0
-0.681344 0.018366 0.377868 76 0 153
-0.553033 -0.004642 -0.073173 153 76 0
0.723140 0.002345 -0.012651 153 0 76
0.497180 -0.004642 0.361794 153 76 0
-0.708297 0.134579 -0.163097 76 0 153
-0.426931 0.154468 -0.323610 76 153 0
-0.642556 0.073530 0.148381 76 0 153
0.356262 0.021876 0.094669 127 0 127
0.086886 -0.004642 0.030555 153 76 0
0.537190 0.134579 0.177505 76 153 0
-0.655816 -0.023407 0.362013 0 0 255
-0.449496 0.154468 -0.131166 76 153 0
-0.191014 0.021876 -0.130047 153 0 76
0.017927 0.021876 0.296854 127 0 127
-0.624809 0.154468 -0.197018 76 153 0
0.046062 0.021876 -0.127177 127 0 127
0.675316 -0.334046 -0.364646 153 0 76
0.042204 0.154468 0.142006 76 153 0
-0.682701 -0.402418 -0.179378 255 0 0
-0.655816 -0.403070 0.345300 0 0 255
0.087431 0.134579 0.274011 76 153 0
0.267147 0.154468 0.373024 76 153 0
0.631669 0.021876 0.165424 127 0 127
-0.319888 0.134579 0.360186 76 153 0
0.284899 0.134579 -0.362535 76 153 0
0.307406 0.154468 -0.232629 76 153 0
-0.072060 0.134579 0.016558 76 153 0
0.692544 -0.004642 -0.144622 153 76 0
0.193539 0.035538 -0.251943 127 127 0
-0.378269 -0.004642 0.234492 153 76 0
0.121625 -0.004642 -0.171441 153 76 0
-0.651341 0.154468 0.337584 76 153 0
-0.294534 0.021876 0.308179 153 0 76
0.259610 0.028506 0.144653 127 0 127
0.359242 0.028506 0.137508 127 0 127
-0.431581 0.154468 -0.006494 76 153 0
-0.277862 0.021876 0.214939 153 0 76
0.044454 0.134579 -0.015644 76 153 0
-0.565228 0.028506 0.183431 153 0 76
0.568233 0.154468 0.331472 76 153 0
0.515352 0.069640 -0.364646 76 153 0
-0.389671 0.028506 -0.002591 153 0 76
-0.202282 0.154468 -0.272612 76 153 0
0.420032 -0.004642 0.155021 153 76 0
-0.609144 0.028506 -0.070167 153 0 76
-0.129920 0.021876 0.278119 153 0 76
-0.584485 0.021876 -0.091001 153 0 76
0.152847 -0.004642 0.147493 153 76 0
0.213699 -0.004642 0.215043 153 76 0
0.131158 0.028506 -0.054233 127 0 127
0.046942 0.134579 -0.316021 76 153 0
-0.682975 -0.402418 0.256237 255 0 0
0.715202 -0.222092 -0.364646 153 0 76
0.115797 -0.004642 0.057829 153 76 0
-0.411079 0.154468 0.076228 76 153 0
-0.006116 0.092568 0.001898 153 76 0
0.616112 0.028506 -0.175350 127 0 127
0.441341 0.068615 0.364609 0 0 255
0.407353 0.134579 -0.280969 76 153 0
-0.675704 -0.369344 -0.303937 204 51 127
-0.045482 -0.004642 -0.178048 153 76 0
-0.684392 -0.454628 0.371238 0 0 255
0.670103 -0.099999 0.340912 76 0 153
-0.219161 0.134579 0.199798 76 153 0
0.118889 0.134579 0.260037 76 153 0
-0.255912 -0.004642 -0.136040 153 76 0
-0.108705 0.154468 0.019916 76 153 0
0.555931 -0.004642 -0.119894 153 76 0
0.386404 0.154468 0.061325 76 153 0
0.261577 0.154468 -0.122911 76 153 0
0.674944 -0.205956 0.377868 76 0 153
-0.655816 -0.301642 0.326057 0 0 255
-0.350870 0.154468 0.222157 76 153 0
0.037759 0.134579 0.229053 76 153 0
0.055206 -0.004642 0.308815 153 76 0
0.723140 -0.042405 -0.313814 153 0 76
-0.311006 0.134579 -0.105493 76 153 0
-0.297387 0.042339 -0.245314 76 0 153
-0.373224 0.120356 -0.364646 76 153 0
0.410204 0.021876 0.289002 127 0 127
0.721642 0.104278 -0.364646 76 153 0
0.227002 -0.004642 0.014926 153 76 0
0.323377 0.154468 0.314581 76 153 0
-0.093041 0.021876 0.343419 153 0 76
0.345699 -0.004642 0.304924 153 76 0
-0.455304 0.134579 -0.154766 76 153 0
0.412280 -0.004642 -0.346354 153 76 0
-0.503282 0.077579 -0.251943 76 0 153
0.046810 0.026337 -0.364646 76 153 0
0.335880 0.134579 -0.329367 76 153 0
0.636191 0.134579 0.310318 76 153 0
0.299826 0.021876 -0.185808 127 0 127
0.709880 0.106801 -0.113056 153 0 76
-0.655816 -0.257629 -0.343489 204 51 127
-0.708852 -0.037995 -0.327705 76 0 153
0.709880 0.047906 -0.276979 153 0 76
-0.043840 0.154468 -0.121483 76 153 0
0.268409 0.028506 -0.195940 127 0 127
-0.434523 0.134579 -0.151014 76 153 0
0.689291 0.044938 0.377868 153 0 76
0.512322 0.021876 -0.124194 127 0 127
0.323634 0.154468 0.256735 76 153 0
-0.578635 -0.004642 -0.149977 153 76 0
0.700242 -0.603494 -0.364646 153 0 76
-0.600379 0.106747 -0.364646 76 153 0
-0.501958 -0.004642 0.197230 153 76 0
-0.497128 0.154468 0.277506 76 153 0
0.360367 0.028506 -0.144086 127 0 127
0.160584 0.154468 -0.083660 76 153 0
0.231079 0.154468 -0.213680 76 153 0
0.676406 0.134579 -0.168805 76 153 0
0.221474 0.154468 -0.029008 76 153 0
-0.080326 0.154468 0.036583 76 153 0
-0.129094 -0.004642 0.237380 153 76 0
-0.092246 0.040973 -0.364646 76 153 0
-0.385195 0.021876 -0.103322 153 0 76
-0.268085 0.154468 -0.076793 76 153 0
-0.252118 0.134579 -0.193818 76 153 0
0.672878 0.154468 0.153238 76 153 0
-0.356085 0.028506 0.307225 153 0 76
0.071404 0.005862 0.371238 153 76 0
-0.233754 0.134579 -0.328393 76 153 0
-0.617555 0.134579 -0.067398 76 153 0
0.422818 0.154468 -0.148698 76 153 0
-0.106598 0.154468 -0.080362 76 153 0
-0.674236 0.134579 0.360709 76 0 153
-0.637698 0.134579 0.187731 76 0 153
0.617456 0.028506 0.018655 127 0 127
-0.522416 0.047341 -0.251943 76 0 153
-0.248351 -0.402418 -0.341059 127 127 0
-0.641779 0.134579 -0.042506 76 0 153
-0.622334 -0.004642 -0.282047 153 76 0
0.670103 -0.375136 0.358763 76 0 153
-0.104747 0.028506 0.275347 153 0 76
0.013773 0.040866 0.351818 127 0 127
0.047060 0.021876 -0.091751 127 0 127
-0.297214 0.154468 0.124183 76 153 0
0.656844 0.065716 0.224660 255 0 0
-0.160341 0.154468 0.216365 76 153 0
-0.570453 0.134579 0.307477 76 153 0
-0.446881 -0.004642 0.007231 153 76 0
0.670103 -0.082989 0.326653 76 0 153
0.663473 0.022981 0.094115 255 0 0
-0.003522 0.154468 -0.022161 76 153 0
0.379823 0.134579 -0.064744 76 153 0
-0.572600 0.091965 -0.251943 76 0 153
0.670103 -0.073630 -0.317237 153 0 76
-0.331428 0.021876 -0.063794 153 0 76
0.703251 -0.363139 0.245691 0 255 0
-0.695284 -0.124608 -0.364646 204 51 127
0.696648 0.154468 -0.239172 76 153 0
0.485405 0.029489 0.377868 0 0 255
0.133212 0.154468 -0.214633 76 153 0
0.440494 0.134579 0.088970 76 153 0
-0.149318 0.154468 0.027894 76 153 0
0.412168 0.154468 -0.188086 76 153 0
0.203609 0.021876 0.003175 127 0 127
-0.043348 0.134579 -0.350046 76 153 0
0.116229 0.032625 0.377868 0 0 255
-0.275567 0.021876 0.101884 153 0 76
0.404845 -0.004642 0.246285 153 76 0
-0.374686 0.154468 0.103106 76 153 0
0.705610 0.154468 -0.026450 76 153 0
-0.210147 0.134579 -0.357958 76 153 0
0.106446 -0.004642 -0.112844 153 76 0
0.204720 0.021876 0.188726 127 0 127
0.043071 0.124644 0.371238 76 153 0
-0.674122 -0.306879 0.324831 0 0 255
-0.581568 -0.004642 0.206205 153 76 0
-0.437316 -0.004642 0.075512 153 76 0
0.144259 0.021876 0.003853 127 0 127
0.169540 0.154468 -0.220514 76 153 0
-0.260800 0.134579 -0.058489 76 153 0
-0.131205 0.134579 0.087943 76 153 0
0.166154 -0.004642 -0.314091 153 76 0
-0.550579 -0.004642 -0.162236 153 76 0
0.723140 0.018301 -0.094216 153 0 76
0.670103 -0.651664 -0.348668 153 0 76
-0.619837 0.140890 -0.364646 76 153 0
-0.631300 0.037580 0.364609 153 0 76
-0.666619 0.154468 -0.318195 76 153 0
-0.612791 -0.004642 0.336812 153 76 0
-0.006116 0.087174 0.117309 153 76 0
0.717606 0.108061 -0.193410 153 0 76
0.185009 0.134579 0.026881 76 153 0
-0.704418 0.015247 0.208098 76 0 153
0.414965 0.047286 -0.364646 76 153 0
-0.669197 -0.143898 -0.311610 204 51 127
0.319706 0.154468 0.198988 76 153 0
-0.343024 0.028506 0.110265 153 0 76
0.689992 -0.381857 -0.205281 0 255 0
-0.029230 0.028506 0.065766 153 76 0
0.561949 -0.004642 0.173888 153 76 0
0.499637 0.042294 -0.251943 127 127 0
-0.100292 0.154468 -0.319249 76 153 0
-0.060010 0.028506 0.288043 153 0 76
0.488329 0.134579 0.139120 76 153 0
0.723140 -0.303363 0.337970 76 0 153
-0.242398 0.134579 0.120155 76 153 0
-0.675704 -0.395165 -0.009222 255 0 0
0.655804 0.154468 0.358278 76 153 0
0.347742 0.134579 -0.139469 76 153 0
0.253349 -0.004642 -0.168194 153 76 0
-0.664150 0.154468 0.242898 76 153 0
0.107281 0.154468 -0.137274 76 153 0
0.212784 0.134579 0.179747 76 153 0
0.439867 0.154468 -0.345946 76 153 0
0.089864 0.134579 -0.079278 76 153 0
-0.321094 0.154468 -0.010640 76 153 0
-0.702223 0.069762 -0.238926 76 0 153
0.348685 0.134579 -0.024884 76 153 0
-0.691519 0.154468 0.341915 76 153 0
0.633827 0.154468 -0.216401 76 153 0
-0.687390 -0.004642 -0.087249 76 0 153
0.567921 0.054607 -0.245314 127 127 0
-0.359030 0.028506 0.121165 153 0 76
0.663473 0.036847 0.313584 255 0 0
0.481340 0.134579 -0.130265 76 153 0
0.483132 0.028506 0.081715 127 0 127
-0.049439 0.089178 0.371238 153 0 76
0.689992 -0.376491 0.298885 0 255 0
-0.095538 0.154468 0.088222 76 153 0
0.490090 0.154468 -0.135402 76 153 0
-0.226029 0.154468 0.248322 76 153 0
0.642261 0.028506 -0.219469 255 0 0
-0.439728 0.017671 0.371238 153 0 76
0.213525 0.134579 0.221503 76 153 0
-0.327227 0.154468 0.225544 76 153 0
-0.423381 0.154468 0.362291 76 153 0
-0.708852 0.005180 0.235680 76 0 153
0.455925 0.044889 0.364609 0 0 255
-0.606701 0.154468 -0.234150 76 153 0
-0.701566 0.154468 -0.072946 76 153 0
-0.454871 -0.004642 -0.220140 153 76 0
0.559029 0.010250 0.371238 153 76 0
0.571306 0.021876 0.185075 127 0 127
0.525810 0.021876 0.202641 127 0 127
0.346579 0.154149 0.377868 76 153 0
0.475562 -0.004642 0.250472 153 76 0
0.087037 -0.365131 -0.331498 127 127 0
-0.617904 0.094802 -0.246181 76 0 153
-0.400014 0.134579 -0.321152 76 153 0
0.584762 0.021876 -0.102899 127 0 127
0.723140 0.116354 0.234940 153 0 76
0.153781 0.043252 0.364609 0 0 255
-0.273452 -0.004642 -0.250713 153 76 0
-0.207082 0.134579 0.295453 76 153 0
-0.117420 0.134579 -0.351753 76 153 0
-0.639664 -0.004642 0.311212 153 76 0
-0.702223 0.062141 -0.029430 76 0 153
0.082206 -0.004642 -0.142238 153 76 0
0.409004 0.154468 0.012472 76 153 0
0.183630 0.094668 0.364609 0 0 255
0.077732 0.028506 0.293667 127 0 127
-0.665073 0.050387 0.377868 76 0 153
-0.532099 0.154468 -0.167390 76 153 0
0.081876 0.154468 0.022922 76 153 0
0.620022 0.022355 -0.251943 127 127 0
-0.620554 0.134579 -0.022670 76 153 0
-0.686492 0.154468 -0.060331 76 153 0
-0.320970 0.134579 0.035778 76 153 0
-0.321448 0.154468 0.250617 76 153 0
-0.226818 0.154468 -0.107236 76 153 0
-0.649186 0.030539 0.098483 153 0 76
0.125323 -0.004642 0.336107 153 76 0
-0.189715 -0.004642 0.113476 153 76 0
0.306146 0.154468 -0.088504 76 153 0
-0.688964 -0.393701 0.162009 255 0 0
-0.494119 -0.004642 -0.363096 153 76 0
-0.587730 -0.004642 0.025934 153 76 0
0.325818 0.021876 0.008943 127 0 127
-0.308404 0.077420 -0.251943 76 0 153
-0.401502 0.154468 -0.150753 76 153 0
-0.432403 0.028506 0.242806 153 0 76
-0.213700 0.134579 -0.180642 76 153 0
0.515540 0.121627 0.371238 76 153 0
0.632522 0.154468 -0.088640 76 153 0
0.480557 0.134579 0.162046 76 153 0
-0.326633 -0.004642 0.308020 153 76 0
0.005539 -0.004642 0.106044 153 76 0
0.230405 0.021876 0.198305 127 0 127
0.597116 -0.004642 -0.322656 153 76 0
-0.191766 0.021876 -0.107478 153 0 76
0.596704 -0.004642 -0.047108 153 76 0
0.534081 0.154468 -0.361603 76 153 0
0.567287 0.069615 0.371238 0 0 255
-0.458485 0.042929 -0.245314 76 0 153
-0.127316 0.134579 0.299334 76 153 0
0.062348 -0.375837 -0.344758 127 127 0
0.277281 0.154468 0.193370 76 153 0
0.709880 0.060957 0.130563 153 0 76
0.359760 0.154468 -0.080784 76 153 0
0.633599 0.134579 -0.270464 76 153 0
0.611496 0.021876 0.336152 127 0 127
-0.708852 -0.348318 -0.314490 204 51 127
-0.023405 0.154468 0.012512 76 153 0
0.039705 0.134579 0.308014 76 153 0
-0.532038 0.134579 0.310002 76 153 0
-0.460867 0.154468 -0.095769 76 153 0
-0.675704 -0.366147 0.179071 255 0 0
0.558870 -0.004642 0.270883 153 76 0
0.544704 0.134579 -0.137262 76 153 0
0.401663 -0.004642 0.048502 153 76 0
-0.087218 0.154468 -0.131733 76 153 0
0.418880 0.134579 0.058498 76 153 0
0.689992 -0.376044 0.220515 0 255 0
-0.372088 0.021876 0.215588 153 0 76
0.442738 0.028506 0.075032 127 0 127
0.191393 -0.004642 -0.014666 153 76 0
-0.542840 0.122380 -0.364646 76 153 0
0.164953 0.154468 0.261569 76 153 0
-0.174429 -0.004642 0.226679 153 76 0
-0.610277 -0.004642 -0.142036 153 76 0
0.507495 0.063001 0.371238 0 0 255
0.218799 0.021876 0.159909 127 0 127
-0.415392 0.154468 -0.058299 76 153 0
-0.061827 0.154468 0.135130 76 153 0
-0.107331 0.021876 0.237969 153 0 76
0.376216 -0.004642 0.005631 153 76 0
0.122070 0.154468 0.210141 76 153 0
0.017751 0.021876 0.064445 127 0 127
0.524516 0.154468 0.161286 76 153 0
0.723140 -0.171600 -0.349925 153 0 76
-0.256499 0.028506 0.156455 153 0 76
0.047226 -0.004642 0.034200 153 76 0
0.670103 -0.064029 0.369034 76 0 153
0.291672 0.134579 -0.072053 76 153 0
-0.036675 0.154468 0.200153 76 153 0
0.675079 -0.004642 0.220963 153 76 0
0.248595 0.028506 0.289689 127 0 127
0.717526 -0.050924 0.324831 76 0 153
-0.203051 -0.004642 -0.187856 153 76 0
0.408379 0.093589 -0.364646 76 153 0
0.670103 -0.643343 -0.312822 153 0 76
-0.021325 0.134579 -0.112055 76 153 0
-0.409707 0.134579 -0.065096 76 153 0
0.089621 0.028506 -0.166369 127 0 127
-0.080613 0.134579 -0.221787 76 153 0
-0.169764 0.021876 0.113124 153 0 76
-0.702223 0.100219 -0.297966 76 0 153
-0.702223 0.060074 0.160854 76 0 153
0.034442 -0.004642 -0.098641 153 76 0
0.490395 -0.004642 -0.085209 153 76 0
-0.440211 -0.004642 -0.179107 153 76 0
-0.304465 0.021876 -0.108641 153 0 76
0.548521 -0.004642 0.330445 153 76 0
0.721209 0.134579 0.124606 153 0 76
-0.126418 -0.004642 0.115870 153 76 0
-0.601236 0.028506 0.296098 153 0 76
-0.357815 0.134579 0.311209 76 153 0
0.714948 0.134579 -0.176957 153 0 76
-0.702223 0.105623 0.178591 76 0 153
0.687627 -0.484565 -0.364646 153 0 76
-0.252848 -0.003633 0.377868 153 76 0
0.104041 0.154468 -0.073161 76 153 0
-0.548269 -0.004642 -0.027769 153 76 0
0.706128 -0.628552 -0.311610 153 0 76
-0.702223 0.105427 -0.039473 76 0 153
0.520897 -0.004642 -0.234346 153 76 0
0.089218 0.134579 -0.196815 76 153 0
0.570081 0.134579 -0.100950 76 153 0
-0.343808 0.154468 0.032468 76 153 0
-0.702223 0.033725 -0.119894 76 0 153
0.603965 0.154468 0.077869 76 153 0
0.703251 -0.401448 -0.299193 153 0 76
-0.589975 0.134579 0.061142 76 153 0
-0.594191 0.118668 0.377868 76 153 0
-0.144785 0.028506 0.215370 153 0 76
0.051357 0.032094 0.377868 0 0 255
-0.332453 0.134579 -0.140779 76 153 0
-0.255154 0.134579 -0.084900 76 153 0
0.137839 0.021876 0.229312 127 0 127
-0.363502 0.154468 -0.026612 76 153 0
0.505532 0.134579 0.193457 76 153 0
0.207815 0.134579 -0.304552 76 153 0
-0.101987 0.134579 0.200040 76 153 0
0.190331 0.134579 -0.270250 76 153 0
0.359359 0.015247 0.373324 0 0 255
-0.655816 -0.190448 -0.312157 204 51 127
0.524871 0.134579 -0.094932 76 153 0
0.657822 0.021876 -0.203626 255 0 0
0.569143 0.076259 -0.245314 127 127 0
0.556883 0.134579 0.065286 76 153 0
0.176025 0.134579 0.311972 76 153 0
-0.015638 0.154468 -0.338870 76 153 0
-0.708852 -0.578615 -0.344702 76 0 153
-0.512588 0.048379 0.371238 153 0 76
0.150525 0.032583 -0.364646 76 153 0
0.557149 -0.004642 -0.234955 153 76 0
0.723140 0.039518 -0.329411 153 0 76
-0.436639 0.154468 0.059318 76 153 0
-0.055586 0.134579 0.030589 76 153 0
-0.470135 0.154468 0.004046 76 153 0
-0.273344 0.134579 0.061605 76 153 0
0.313588 0.028506 0.286506 127 0 127
-0.394229 0.021876 0.152997 153 0 76
0.394068 0.154468 0.294193 76 153 0
-0.660685 -0.346775 0.324831 0 0 255
-0.708852 -0.310562 -0.338685 204 51 127
0.669859 0.074607 0.371238 0 0 255
-0.073679 0.021876 -0.003718 153 0 76
-0.414748 0.134579 -0.103888 76 153 0
0.674960 -0.111893 -0.364646 153 0 76
0.723140 -0.404530 0.366285 76 0 153
-0.658348 -0.574372 -0.364646 204 51 127
0.680580 0.134579 -0.082833 153 0 76
-0.189437 -0.377480 -0.331498 127 127 0
0.498928 -0.004642 0.215791 153 76 0
0.147798 0.154468 0.319014 76 153 0
0.160877 -0.004642 0.011475 153 76 0
0.482803 0.028506 0.043666 127 0 127
-0.575511 -0.004642 0.284340 153 76 0
0.663019 0.134678 -0.364646 76 153 0
-0.386761 0.154468 -0.314547 76 153 0
0.487915 0.154468 -0.107606 76 153 0
-0.615220 0.021876 0.086850 153 0 76
-0.681162 -0.004642 0.227121 153 76 0
-0.642556 0.043813 -0.131669 76 0 153
-0.708852 -0.666487 0.355329 0 0 255
-0.690234 -0.004642 -0.154684 76 0 153
0.434552 0.154468 -0.020843 76 153 0
-0.665247 -0.004642 0.282737 76 0 153
0.020403 0.078835 -0.055122 0 255 0
0.034600 -0.004642 -0.033296 153 76 0
0.165566 0.154468 0.231806 76 153 0
-0.427383 0.021876 -0.019648 153 0 76
0.723140 0.123320 -0.073011 153 0 76
0.010952 0.010834 0.377868 153 76 0
-0.129600 0.154468 0.336078 76 153 0
-0.609883 -0.004642 0.300155 153 76 0
0.347057 -0.004642 -0.250763 153 76 0
-0.493262 0.134579 -0.268994 76 153 0
-0.650427 -0.004642 -0.157667 76 0 153
-0.687471 -0.402418 -0.209219 255 0 0
0.686352 -0.596896 0.324831 76 0 153
0.505073 -0.004642 -0.347618 153 76 0
-0.183956 0.043781 0.364609 153 0 76
0.000514 0.074768 -0.042164 153 76 0
-0.348908 0.028506 0.242006 153 0 76
0.019894 0.094802 0.055795 0 255 0
-0.539525 -0.004642 0.305577 153 76 0
0.312372 0.134579 -0.166550 76 153 0
-0.649186 0.030155 -0.025107 153 0 76
-0.496969 -0.394335 -0.344758 127 127 0
0.474137 -0.004642 -0.224670 153 76 0
-0.239805 0.154468 -0.287457 76 153 0
0.723140 -0.101029 -0.330267 153 0 76
-0.500433 -0.004642 0.111368 153 76 0
0.412353 0.154468 0.361925 76 153 0
0.020403 0.045545 -0.110817 0 255 0
0.259214 0.039402 0.364609 0 0 255
-0.492164 -0.004642 -0.083702 153 76 0
-0.397766 0.043922 -0.245314 76 0 153
-0.559794 0.134579 0.365012 76 153 0
-0.009824 -0.004642 0.361174 153 76 0
0.078777 0.000165 -0.364646 153 76 0
-0.567923 0.154468 -0.147918 76 153 0
-0.644904 0.076249 -0.364646 76 153 0
0.020403 0.081449 0.252180 0 255 0
-0.223110 0.154468 0.220020 76 153 0
0.525156 -0.004642 -0.311065 153 76 0
0.660299 0.021876 0.221721 255 0 0
0.232269 0.096205 -0.364646 76 153 0
0.614574 0.021876 0.154782 127 0 127
0.330633 0.154468 -0.108906 76 153 0
-0.514627 0.028506 0.219588 153 0 76
0.380124 -0.362640 -0.334084 127 127 0
0.521591 0.021876 0.258569 127 0 127
0.340608 0.154468 0.120282 76 153 0
-0.035935 0.028506 0.355376 153 0 76
-0.377197 0.021876 0.363410 153 76 0
0.593025 0.134579 0.259429 76 153 0
-0.649186 0.069038 0.212098 76 0 153
-0.374038 0.154468 -0.206076 76 153 0
-0.184941 0.015247 0.377090 153 0 76
0.143672 0.021876 0.042349 127 0 127
0.191382 -0.004642 -0.334935 153 76 0
-0.386555 -0.004642 -0.074017 153 76 0
0.670103 -0.562376 0.375637 76 0 153
-0.081377 -0.004642 -0.316585 153 76 0
0.580507 -0.381178 -0.344758 127 127 0
0.557135 0.021876 0.039140 127 0 127
0.380050 0.028506 0.149459 127 0 127
-0.311358 0.077465 0.371238 153 0 76
-0.619313 0.038125 -0.251943 153 0 76
-0.656604 -0.004642 -0.024752 153 76 0
0.442324 0.028506 0.271789 127 0 127
-0.702223 0.069247 -0.124830 76 0 153
0.252392 0.037139 -0.364646 76 153 0
-0.625092 0.154468 -0.172498 76 153 0
0.582207 0.134579 -0.231415 76 153 0
-0.548759 0.028506 0.320581 153 0 76
0.001414 0.134579 0.308038 76 153 0
0.578427 -0.004642 0.066483 153 76 0
0.108930 0.134579 -0.252659 76 153 0
-0.530143 0.028506 0.170016 153 0 76
-0.588404 0.015247 0.373171 153 76 0
-0.012254 -0.004642 -0.096910 153 76 0
0.670103 -0.533602 0.362696 76 0 153
0.458783 0.154468 0.092126 76 153 0
0.723140 -0.608055 -0.338535 153 0 76
-0.413450 -0.004642 -0.009517 153 76 0
-0.578392 -0.004642 0.238826 153 76 0
0.175188 0.154468 -0.288333 76 153 0
-0.545148 0.134579 -0.111622 76 153 0
-0.636883 -0.004642 0.354705 153 76 0
0.495272 0.087293 -0.364646 76 153 0
0.546903 0.028506 0.018002 127 0 127
-0.402133 0.028506 0.022776 153 0 76
0.509420 0.134579 0.067888 76 153 0
-0.689121 -0.004642 -0.021005 76 0 153
0.059605 0.154468 -0.270574 76 153 0
0.085215 0.154468 0.105276 76 153 0
-0.655816 -0.449187 -0.312233 204 51 127
0.525911 0.134579 -0.343005 76 153 0
-0.655816 -0.165101 0.360902 0 0 255
-0.002236 -0.004642 0.331349 153 76 0
-0.708852 -0.129084 0.343529 0 0 255
0.594963 0.154468 -0.230436 76 153 0
-0.702223 0.044840 0.125862 76 0 153
0.226389 0.028506 0.341424 0 0 255
0.411741 -0.004642 -0.014728 153 76 0
-0.485899 0.021876 0.260093 153 0 76
0.400387 0.154468 -0.261334 76 153 0
-0.217238 0.097337 -0.364646 76 153 0
0.196860 0.154468 -0.095793 76 153 0
-0.169001 0.021876 -0.141630 153 0 76
0.689992 -0.374614 0.339769 0 255 0
0.122619 0.134579 -0.323702 76 153 0
0.250193 0.028506 -0.028689 127 0 127
-0.293869 0.021876 0.108690 153 0 76
-0.250207 0.015247 0.377309 153 0 76
-0.059943 0.081839 -0.251943 76 0 153
-0.708852 -0.251557 0.359893 0 0 255
0.231594 0.134579 -0.282953 76 153 0
0.663473 0.090743 0.337684 255 0 0
-0.523225 0.021876 0.252628 153 0 76
0.318835 0.154468 -0.027126 76 153 0
0.251265 0.112150 -0.364646 76 153 0
-0.598537 0.145804 -0.364646 76 153 0
-0.697124 -0.380891 -0.364646 204 51 127
0.628587 0.154468 0.295573 76 153 0
-0.223182 0.074300 -0.364646 76 153 0
0.703251 -0.364820 -0.005014 0 255 0
-0.093522 -0.004642 0.072225 153 76 0
-0.324080 0.154468 0.344203 76 153 0
-0.279221 0.154468 0.117838 76 153 0
0.151485 0.134579 0.230329 76 153 0
0.451566 0.021876 -0.212237 127 0 127
0.411925 0.134579 -0.048857 76 153 0
0.532994 0.134579 0.100122 76 153 0
0.017549 0.094802 0.339458 0 255 0
-0.246555 0.154468 0.176819 76 153 0
-0.562748 0.154468 0.252756 76 153 0
0.484086 -0.004642 0.165267 153 76 0
-0.688964 -0.399466 -0.050103 255 0 0
0.487950 -0.004642 0.032725 153 76 0
0.223388 0.134579 0.128200 76 153 0
-0.232392 -0.004642 0.237384 153 76 0
0.447406 0.134579 -0.060260 76 153 0
-0.424574 0.080215 0.364609 153 0 76
0.021937 0.134579 -0.313869 76 153 0
-0.019214 0.134579 -0.035713 76 153 0
-0.505914 -0.004642 0.037588 153 76 0
-0.655816 -0.558289 0.339020 0 0 255
-0.006116 0.068176 0.057781 153 76 0
0.564198 0.134579 0.132141 76 153 0
-0.256550 0.021876 -0.094078 153 0 76
0.539698 0.154468 -0.209330 76 153 0
0.624149 0.154468 0.318122 76 153 0
0.021818 0.134579 0.161379 76 153 0
-0.482184 0.134579 0.014203 76 153 0
0.128051 0.100868 0.377868 0 0 255
-0.443557 0.154468 0.179893 76 153 0
-0.668004 -0.348734 -0.364646 204 51 127
-0.708852 -0.160905 -0.326912 204 51 127
-0.077532 0.154468 -0.346525 76 153 0
-0.491022 -0.004642 0.249145 153 76 0
0.269019 0.154468 0.282048 76 153 0
0.338441 0.028506 0.344597 0 0 255
0.342182 -0.362640 -0.332137 127 127 0
0.723140 0.119561 -0.106816 153 0 76
0.675187 -0.108041 0.377868 153 0 76
0.706033 -0.004642 0.250388 153 76 0
-0.022187 0.134579 0.161654 76 153 0
-0.668444 0.134579 -0.257768 76 153 0
-0.230448 -0.382262 -0.344758 127 127 0
0.032380 0.134579 0.111342 76 153 0
0.663473 0.042656 0.351937 255 0 0
-0.493899 -0.004642 -0.329559 153 76 0
0.455490 -0.004642 -0.192317 153 76 0
0.695894 0.133266 -0.364646 76 153 0
0.220964 0.134579 0.021957 76 153 0
0.505409 0.021876 -0.017315 127 0 127
-0.313282 -0.004642 0.018110 153 76 0
-0.708852 -0.248222 -0.363285 204 51 127
0.265666 -0.379277 -0.344758 127 127 0
-0.548931 0.154468 -0.345991 76 153 0
-0.255178 0.154468 0.303055 76 153 0
0.503235 0.154468 -0.176987 76 153 0
-0.006116 0.037795 0.306943 153 76 0
0.649568 0.135222 0.377868 76 153 0
-0.131141 0.134579 0.168035 76 153 0
0.189742 -0.004642 -0.230603 153 76 0
-0.056143 0.154468 -0.159289 76 153 0
0.403889 -0.362640 -0.332767 127 127 0
-0.041196 -0.001658 -0.364646 153 76 0
0.537825 0.134579 -0.059972 76 153 0
-0.337066 0.134579 -0.030269 76 153 0
0.554529 -0.004642 0.043029 153 76 0
-0.655816 -0.158440 -0.325642 204 51 127
-0.115785 0.071556 -0.251943 76 0 153
0.308702 0.134579 0.343396 76 153 0
0.020403 0.059326 0.190722 0 255 0
-0.133061 0.060557 -0.364646 76 153 0
-0.329407 0.069618 0.384498 153 0 76
0.505080 0.154468 -0.261630 76 153 0
-0.137066 0.028506 -0.147783 153 0 76
0.039166 0.006645 -0.364646 153 76 0
0.185535 0.154468 -0.346471 76 153 0
-0.688964 -0.383518 0.086041 255 0 0
-0.217215 0.028506 0.321569 153 0 76
-0.204381 0.044462 0.364609 153 0 76
0.453123 0.021876 -0.055380 127 0 127
0.000514 0.090705 -0.177637 153 76 0
-0.016911 0.078587 0.364609 153 0 76
-0.701303 -0.004642 0.007825 76 0 153
-0.313338 0.044246 0.371238 153 0 76
-0.090037 0.134579 -0.094486 76 153 0
0.013773 0.066688 0.165303 0 255 0
0.715222 0.021318 -0.364646 153 76 0
-0.662795 -0.518188 0.377868 0 0 255
0.689992 -0.380693 -0.073917 0 255 0
0.164916 0.021876 -0.217031 127 0 127
0.124039 0.134579 0.191848 76 153 0
-0.210696 0.102425 0.371238 153 0 76
0.212052 -0.004642 -0.115856 153 76 0
-0.696283 -0.648740 0.324831 0 0 255
0.220856 -0.004642 0.321934 153 76 0
-0.006116 0.093658 0.083034 153 76 0
0.427717 0.154468 0.214184 76 153 0
-0.012449 -0.004642 -0.127641 153 76 0
-0.301132 0.134579 -0.012066 76 153 0
-0.689406 0.154468 -0.162009 76 153 0
0.299379 0.154468 -0.194564 76 153 0
0.276877 -0.004642 -0.284712 153 76 0
0.557059 0.021876 -0.157941 127 0 127
0.060442 0.154468 0.225214 76 153 0
-0.160185 -0.004642 -0.309657 153 76 0
0.621251 0.134579 0.258589 76 153 0
0.271060 0.055961 0.371238 0 0 255
-0.484390 0.021876 0.302827 153 0 76
0.538755 0.154468 0.224130 76 153 0
-0.359857 0.134579 0.060462 76 153 0
-0.655816 -0.312990 -0.322269 204 51 127
0.171693 0.154468 0.194224 76 153 0
0.721329 -0.591078 0.377868 76 0 153
0.582673 0.021876 0.015200 127 0 127
-0.321287 -0.004642 -0.141742 153 76 0
-0.355382 0.154468 0.090046 76 153 0
-0.351644 -0.004642 0.055057 153 76 0
-0.377900 0.087297 0.364609 153 0 76
0.410552 0.028506 -0.100591 127 0 127
-0.683495 0.154468 -0.216505 76 153 0
0.423950 0.021876 0.194810 127 0 127
-0.495124 0.076919 0.371238 153 0 76
-0.524279 0.016808 -0.364646 153 76 0
-0.116447 -0.004642 0.020599 153 76 0
0.696837 -0.566756 -0.364646 153 0 76
-0.128173 0.028506 -0.044754 153 0 76
0.347536 -0.402069 -0.344758 127 127 0
0.013773 0.031057 0.016525 127 0 127
-0.631496 0.021876 0.044786 76 0 153
-0.285068 0.154468 -0.329804 76 153 0
0.409612 0.028506 0.358222 0 0 255
0.602082 0.038844 -0.364646 76 153 0
-0.250819 0.021876 0.077276 153 0 76
-0.349523 -0.004642 0.010987 153 76 0
-0.688964 -0.400227 0.276609 255 0 0
0.683765 -0.068428 -0.364646 153 0 76
-0.239170 -0.004642 0.126616 153 76 0
0.280873 -0.004578 -0.364646 76 153 0
-0.347199 0.134579 0.244461 76 153 0
-0.132019 0.134579 -0.275060 76 153 0
-0.277698 0.028506 -0.122582 153 0 76
-0.127894 -0.004642 0.340915 153 76 0
0.723140 -0.617201 0.332084 76 0 153
-0.508448 0.134579 0.073863 76 153 0
0.712287 0.154468 0.075863 76 153 0
-0.297832 0.028506 -0.050511 153 0 76
0.416321 -0.004642 -0.213361 153 76 0
-0.146033 -0.004642 -0.011326 153 76 0
0.203915 0.020400 0.377868 0 0 255
0.561588 0.021876 -0.181849 127 0 127
-0.042509 0.028506 0.159223 153 0 76
0.159208 0.028506 0.076259 127 0 127
0.198784 0.154468 0.172127 76 153 0
-0.458626 0.073951 -0.251943 76 0 153
-0.036681 -0.004642 0.209290 153 76 0
-0.157672 0.134579 -0.325892 76 153 0
0.551791 0.021876 0.256308 127 0 127
-0.629452 0.087630 -0.364646 76 153 0
-0.566908 -0.004642 -0.201377 153 76 0
0.460570 0.054825 -0.251943 127 127 0
-0.119777 0.028506 0.048436 153 0 76
0.720563 -0.410790 -0.311610 153 0 76
-0.514657 -0.004642 -0.057370 153 76 0
0.292303 0.134579 -0.200491 76 153 0
-0.029773 0.041180 -0.364646 76 153 0
0.323469 0.075059 -0.245314 127 127 0
0.273858 0.021876 -0.103381 127 0 127
-0.708364 0.134579 -0.084074 76 0 153
0.357159 0.021876 0.234660 127 0 127
0.169751 0.134579 -0.159230 76 153 0
-0.465316 0.050304 -0.364646 76 153 0
-0.119810 0.021876 0.361527 153 0 76
-0.009742 0.134579 0.032561 76 153 0
-0.655816 -0.439764 0.335061 0 0 255
0.723140 -0.554839 -0.313776 153 0 76
-0.200141 0.021876 0.182073 153 0 76
-0.678751 0.154468 0.283529 76 153 0
-0.000920 0.134579 -0.254824 76 153 0
0.613414 0.154468 -0.003318 76 153 0
0.052240 0.134579 -0.099812 76 153 0
0.480722 0.134579 0.093264 76 153 0
0.571849 0.134579 -0.198983 76 153 0
-0.649186 0.043411 0.298952 76 0 153
0.489796 0.154468 -0.225815 76 153 0
-0.633248 0.134579 -0.323788 76 153 0
0.072575 -0.004642 0.188617 153 76 0
0.246850 0.134579 -0.000356 76 153 0
0.621181 0.154468 -0.295859 76 153 0
0.722295 0.021876 -0.042922 153 0 76
-0.320283 0.028506 0.040264 153 0 76
0.194085 0.147916 0.377868 76 153 0
0.521081 0.028506 -0.105867 127 0 127
-0.593225 0.087002 0.364609 153 0 76
0.594770 -0.004642 0.254912 153 76 0
-0.335647 0.085883 -0.251943 76 0 153
0.656844 0.044538 -0.011752 255 0 0
0.480478 0.154468 0.307742 76 153 0
0.713994 -0.464307 0.377868 76 0 153
-0.245466 0.112879 0.377868 153 0 76
0.703696 -0.299232 -0.364646 153 0 76
0.723140 0.140857 -0.003595 153 0 76
0.509348 0.154468 0.356445 76 153 0
-0.267676 0.028506 0.178443 153 0 76
0.207797 -0.004642 0.250103 153 76 0
0.192200 0.134579 -0.357154 76 153 0
0.703650 -0.068723 -0.311610 153 0 76
-0.418492 -0.004642 -0.222700 153 76 0
0.237976 -0.004642 -0.037005 153 76 0
-0.381332 0.134579 0.022858 76 153 0
0.567152 -0.362640 -0.344480 127 127 0
-0.475727 -0.004642 0.110208 153 76 0
0.135854 -0.384390 -0.331498 127 127 0
-0.568980 -0.004642 0.359632 153 76 0
-0.173833 0.028506 -0.224457 76 0 153
0.644066 0.061916 0.364609 0 0 255
0.723140 0.119465 -0.267286 153 0 76
0.264740 0.134579 0.104868 76 153 0
0.431628 0.021876 -0.022468 127 0 127
0.710875 -0.009402 0.324831 76 0 153
-0.708852 0.130674 -0.145101 76 0 153
-0.412692 0.154468 -0.121059 76 153 0
-0.259430 0.154468 -0.348118 76 153 0
0.706525 -0.051815 0.377868 153 0 76
0.635977 -0.004642 0.041063 153 76 0
-0.655816 -0.467685 0.337773 0 0 255
-0.658532 -0.091290 0.377868 0 0 255
0.391823 -0.004642 0.355505 153 76 0
-0.702223 0.031326 -0.041752 76 0 153
0.244379 -0.004642 0.344578 153 76 0
-0.608081 -0.004642 0.281836 153 76 0
0.667405 0.154468 0.110340 76 153 0
0.665985 0.066787 -0.364646 76 153 0
0.722034 -0.499041 -0.364646 153 0 76
0.723140 -0.159115 0.373462 76 0 153
